ply
format ascii 1.0
element vertex 426
property double x
property double y
property double z
property double nx
property double ny
property double nz
end_header
-0.111536247256599 -0.180998823284835 -0.000189904762000 -0.536803030831623 -0.775986723117445 0.331190446171735
-0.111270546334307 -0.025812256124957 -0.053940502754807 -0.350710722688949 -0.121625820904060 -0.928552178760251
-0.111219243614610 0.077615497619096 0.104258248069504 -0.331691318785005 0.639813908804813 0.693266926329657
-0.111107492627640 0.042744591128409 -0.055489630200286 -0.346687056730986 0.078103112391153 -0.934723482389322
-0.111084055920144 0.090572187853873 0.091300582868816 -0.286106842293771 0.750993245272590 0.595106730215371
-0.110988502899957 -0.028551977080563 -0.053693204850077 -0.355482340763485 -0.109064668324881 -0.928298014394352
-0.110966397697865 -0.115471107107813 -0.050636333558354 -0.096640230616393 -0.002825938838174 -0.995315367055132
-0.110908765682601 -0.026738305732108 -0.053955847945388 -0.350710722688949 -0.121625820904060 -0.928552178760251
-0.110901630871668 -0.152587821382414 -0.051136863764922 -0.093555998915097 0.000449525644899 -0.995613917637602
-0.110833623544574 -0.031064902380597 -0.053399927919181 -0.162672922330102 -0.061105884165617 -0.984786063701616
-0.110659480597253 -0.166740483855959 0.033793683660597 -0.529403011506763 -0.766267877040339 0.364096130195945
-0.110657917979343 0.045192275331185 -0.055451854276760 -0.346687056730986 0.078103112391153 -0.934723482389322
-0.110649728896213 0.013845930356769 -0.057293748103049 -0.124025566218982 -0.129168162721400 -0.983835984635264
-0.110603572674186 0.088303562073441 0.094236330804342 -0.325226127789634 0.626330961004764 0.708475471057262
-0.110546985030895 -0.027664355339259 -0.053971193135968 -0.350710722688949 -0.121625820904060 -0.928552178760251
-0.110416166396867 0.119304431077241 0.058497687147690 -0.239043959061437 0.806134993549046 0.541298769453536
-0.110216534032475 -0.030764437788913 -0.053728883054874 -0.355482340763485 -0.109064668324881 -0.928298014394352
-0.110208343331046 0.047639959533961 -0.055414078353234 -0.346687056730986 0.078103112391153 -0.934723482389322
-0.110185204379189 -0.028590404946410 -0.053986538326549 -0.350710722688949 -0.121625820904060 -0.928552178760251
-0.109823423727483 -0.029516454553561 -0.054001883517129 -0.350710722688949 -0.121625820904060 -0.928552178760251
-0.109758768682749 0.050087643736737 -0.055376302429708 -0.346687056730986 0.078103112391153 -0.934723482389322
-0.109513390229014 -0.033829465717072 -0.053446471149515 -0.162672922330102 -0.061105884165617 -0.984786063701616
-0.109474402791198 -0.102634724760285 -0.049998696203767 -0.123161067157495 -0.012675813347176 -0.992305736803237
-0.109461643075778 -0.030442504160712 -0.054017228707710 -0.350710722688949 -0.121625820904060 -0.928552178760251
-0.109406538216904 -0.145488505633262 0.063889092825145 -0.400121004027566 -0.590262816427929 0.701065610109739
-0.109365254881491 0.012799392193981 -0.057318272724674 -0.124025566218982 -0.129168162721400 -0.983835984635264
-0.109309194034453 0.052535327939513 -0.055338526506182 -0.346687056730986 0.078103112391153 -0.934723482389322
-0.109154907974168 -0.125001675368007 -0.050785160740736 -0.096640230616393 -0.002825938838174 -0.995315367055132
-0.109127892641730 -0.164228147774128 -0.051308794343745 -0.093555998915097 0.000449525644899 -0.995613917637602
-0.109099862424072 -0.031368553767863 -0.054032573898290 -0.350710722688949 -0.121625820904060 -0.928552178760251
-0.109017948848221 0.078714724070004 0.104296977728833 -0.331691318785005 0.639813908804813 0.693266926329657
-0.108859619386156 0.054983012142289 -0.055300750582656 -0.346687056730986 0.078103112391153 -0.934723482389322
-0.108740094518517 0.054304480883521 -0.055420220859049 -0.260273883029925 0.083766245313961 -0.961894340329813
-0.108738081772366 -0.032294603375014 -0.054047919088871 -0.350710722688949 -0.121625820904060 -0.928552178760251
-0.108478526575749 0.051799102384334 -0.055781096404307 -0.256769830500907 0.092625359403636 -0.962023802688833
-0.108476144590108 0.003469936572427 -0.055959892100631 -0.499211332131154 -0.700279081334464 -0.510291342389030
-0.108410044737859 0.057430696345066 -0.055262974659130 -0.346687056730986 0.078103112391153 -0.934723482389322
-0.108376301120660 -0.033220652982165 -0.054063264279451 -0.350710722688949 -0.121625820904060 -0.928552178760251
-0.108289725528375 0.091599259965894 0.091347890057172 -0.286106842293771 0.750993245272590 0.595106730215371
-0.108193156913454 -0.036594029053546 -0.053493014379849 -0.162672922330102 -0.061105884165617 -0.984786063701616
-0.108124837663227 -0.078446882985387 -0.049459529656376 -0.094657403432324 -0.020487199552438 -0.995299075971614
-0.108080780866770 0.011752854031192 -0.057342797346299 -0.124025566218982 -0.129168162721400 -0.983835984635264
-0.107960470089562 0.059878380547842 -0.055225198735605 -0.346687056730986 0.078103112391153 -0.934723482389322
-0.107510895441265 0.062326064750618 -0.055187422812079 -0.346687056730986 0.078103112391153 -0.934723482389322
-0.107354154411791 -0.175868474165842 -0.051480724922568 -0.093555998915097 0.000449525644899 -0.995613917637602
-0.107343418250471 -0.134532243628201 -0.050933987923119 -0.096640230616393 -0.002825938838174 -0.995315367055132
-0.107312111005636 0.059759237703401 -0.055331585672702 -0.260273883029925 0.083766245313961 -0.961894340329813
-0.107263745239986 0.127319809919842 -0.050688597249693 -0.243959784752450 0.879467760176074 -0.408680905150239
-0.107145360235296 -0.088799543133635 -0.049312033296747 -0.094329448110385 -0.016861485953918 -0.995398234633062
-0.106872923597894 -0.039358592390021 -0.053539557610183 -0.162672922330102 -0.061105884165617 -0.984786063701616
-0.106816654081832 0.079813950520911 0.104335707388163 -0.331691318785005 0.639813908804813 0.693266926329657
-0.106796306852048 0.010706315868403 -0.057367321967924 -0.124025566218982 -0.129168162721400 -0.983835984635264
-0.106740006294795 -0.081605142355393 -0.049558271153099 -0.092494889856188 -0.023459835585686 -0.995436754125939
-0.106666963143424 -0.114905036858475 -0.050190402318200 -0.123161067157495 -0.012675813347176 -0.992305736803237
-0.106633450141605 0.127747998712227 0.046595859079792 -0.242361192810196 0.819019199923568 0.520065959639907
-0.105884127492754 0.065213994523280 -0.055242950486355 -0.260273883029925 0.083766245313961 -0.961894340329813
-0.105810631705835 0.060647619409296 -0.055641222364072 -0.256769830500907 0.092625359403636 -0.962023802688833
-0.105552690282334 -0.042123155726496 -0.053586100840517 -0.162672922330102 -0.061105884165617 -0.984786063701616
-0.105531928526774 -0.144062811888395 -0.051082815105501 -0.096640230616393 -0.002825938838174 -0.995315367055132
-0.105511832837326 0.009659777705615 -0.057391846589549 -0.124025566218982 -0.129168162721400 -0.983835984635264
-0.105495395136605 0.092626332077916 0.091395197245529 -0.286106842293771 0.750993245272590 0.595106730215371
-0.105427005617225 -0.161150890093596 0.049727581095965 -0.483766637360234 -0.705064361384713 0.518511414418563
-0.105200399016107 -0.111175168975685 -0.050335744696367 -0.095547635001973 -0.010594456288212 -0.995368477972598
-0.105141025478780 0.112720930033098 0.069660674873512 -0.233615900621242 0.785203639341941 0.573479603596412
-0.105113340390393 -0.131137120236594 0.075077234608763 -0.299406458596150 -0.449958586443551 0.841363799456949
-0.105082819502936 -0.090750365243192 0.089852803630470 -0.180550710250485 -0.282688334107143 0.942066211466993
-0.104863326239639 0.016162890340376 -0.060084335531792 -0.413454397821804 -0.002970913831806 -0.910519980336957
-0.104862177424929 0.016134465138253 -0.060084764444585 -0.413454397821804 -0.002970913831806 -0.910519980336957
-0.104861028610219 0.016106039936130 -0.060085193357378 -0.413454397821804 -0.002970913831806 -0.910519980336957
-0.104859879795509 0.016077614734007 -0.060085622270171 -0.413454397821804 -0.002970913831806 -0.910519980336957
-0.104858730980799 0.016049189531883 -0.060086051182964 -0.413454397821804 -0.002970913831806 -0.910519980336957
-0.104857582166089 0.016020764329760 -0.060086480095757 -0.413454397821804 -0.002970913831806 -0.910519980336957
-0.104856433351379 0.015992339127637 -0.060086909008550 -0.413454397821804 -0.002970913831806 -0.910519980336957
-0.104855284536669 0.015963913925514 -0.060087337921343 -0.413454397821804 -0.002970913831806 -0.910519980336957
-0.104854135721959 0.015935488723390 -0.060087766834137 -0.413454397821804 -0.002970913831806 -0.910519980336957
-0.104852986907249 0.015907063521267 -0.060088195746930 -0.413454397821804 -0.002970913831806 -0.910519980336957
-0.104829026473713 -0.003202620314078 -0.050825605106326 -0.196331734206033 -0.255933468548054 -0.946547362692757
-0.104615359315442 0.080913176971819 0.104374437047493 -0.331691318785005 0.639813908804813 0.693266926329657
-0.104456143979872 0.070668751343160 -0.055154315300007 -0.260273883029925 0.083766245313961 -0.961894340329813
-0.104232456966774 -0.044887719062971 -0.053632644070851 -0.162672922330102 -0.061105884165617 -0.984786063701616
-0.104227358822604 0.008613239542826 -0.057416371211174 -0.124025566218982 -0.129168162721400 -0.983835984635264
-0.103963651478947 0.017033069717636 -0.060471464597828 -0.402945488527608 0.042451858486988 -0.914238903671381
-0.103878908057630 0.016121860989857 -0.060505729789933 -0.391050930281832 -0.461295017211148 -0.796420791429933
-0.103869407925770 0.018366094933788 -0.060451104073697 -0.402945488527608 0.042451858486988 -0.914238903671381
-0.103859523495650 -0.127175348956665 -0.050382108432633 -0.123161067157495 -0.012675813347176 -0.992305736803237
-0.103775164372594 0.019699120149941 -0.060430743549565 -0.402945488527608 0.042451858486988 -0.914238903671381
-0.103720438803078 -0.153593380148588 -0.051231642287884 -0.096640230616393 -0.002825938838174 -0.995315367055132
-0.103680920819417 0.021032145366093 -0.060410383025433 -0.402945488527608 0.042451858486988 -0.914238903671381
-0.103586677266241 0.022365170582245 -0.060390022501302 -0.402945488527608 0.042451858486988 -0.914238903671381
-0.103492433713064 0.023698195798398 -0.060369661977170 -0.402945488527608 0.042451858486988 -0.914238903671381
-0.103492307925344 0.133382707212251 -0.037161590142582 -0.250414354677781 0.899158015693686 -0.358897636917692
-0.103398190159887 0.025031221014550 -0.060349301453038 -0.402945488527608 0.042451858486988 -0.914238903671381
-0.103395118833065 -0.000084567716470 -0.056052703078995 -0.499211332131154 -0.700279081334464 -0.510291342389030
-0.103303946606711 0.026364246230702 -0.060328940928906 -0.402945488527608 0.042451858486988 -0.914238903671381
-0.103209703053534 0.027697271446855 -0.060308580404775 -0.402945488527608 0.042451858486988 -0.914238903671381
-0.103142736835921 0.069496136434259 -0.055501348323837 -0.256769830500907 0.092625359403636 -0.962023802688833
-0.103115459500358 0.029030296663007 -0.060288219880643 -0.402945488527608 0.042451858486988 -0.914238903671381
-0.103028160466990 0.076123508163039 -0.055065680113660 -0.260273883029925 0.083766245313961 -0.961894340329813
-0.102942884807883 0.007566701380037 -0.057440895832798 -0.124025566218982 -0.129168162721400 -0.983835984635264
-0.102912284885301 0.007472506336176 0.128495995694816 -0.213813023305992 -0.186452270901423 0.958915815773446
-0.102912223651214 -0.047652282399446 -0.053679187301185 -0.162672922330102 -0.061105884165617 -0.984786063701616
-0.102764425781538 -0.120268238911753 -0.050472794796452 -0.095547635001973 -0.010594456288212 -0.995368477972598
-0.102701064744836 0.093653404189937 0.091442504433886 -0.286106842293771 0.750993245272590 0.595106730215371
-0.102644153783032 0.030462944121054 -0.060416097974383 -0.408447303502320 0.058351844489789 -0.910914849207281
-0.102626826307247 0.030623318772737 -0.060413594122375 -0.408447303502320 0.058351844489789 -0.910914849207281
-0.102609498831462 0.030783693424420 -0.060411090270367 -0.408447303502320 0.058351844489789 -0.910914849207281
-0.102592561257545 0.065643177276378 -0.056301609931861 -0.094140737834537 0.052385555071715 -0.994179699601535
-0.102592171355677 0.030944068076103 -0.060408586418359 -0.408447303502320 0.058351844489789 -0.910914849207281
-0.102574843879892 0.031104442727786 -0.060406082566351 -0.408447303502320 0.058351844489789 -0.910914849207281
-0.102557516404107 0.031264817379469 -0.060403578714344 -0.408447303502320 0.058351844489789 -0.910914849207281
-0.102540188928322 0.031425192031153 -0.060401074862336 -0.408447303502320 0.058351844489789 -0.910914849207281
-0.102522861452537 0.031585566682836 -0.060398571010328 -0.408447303502320 0.058351844489789 -0.910914849207281
-0.102505533976752 0.031745941334519 -0.060396067158320 -0.408447303502320 0.058351844489789 -0.910914849207281
-0.102488206500967 0.031906315986202 -0.060393563306312 -0.408447303502320 0.058351844489789 -0.910914849207281
-0.102414064549053 0.082012403422726 0.104413166706823 -0.331691318785005 0.639813908804813 0.693266926329657
-0.102299905580852 -0.093356956371376 -0.049706598405081 -0.094657403432324 -0.020487199552438 -0.995299075971614
-0.102152541463764 0.006507014623244 0.128477667616138 -0.213813023305992 -0.186452270901423 0.958915815773446
-0.102062055010400 -0.103368282304844 -0.049546969202200 -0.094329448110385 -0.016861485953918 -0.995398234633062
-0.101908949079381 -0.163123948408783 -0.051380469470267 -0.096640230616393 -0.002825938838174 -0.995315367055132
-0.101730667897807 0.004280345518578 -0.055295092024185 -0.206494526773671 -0.249684194805029 -0.946053810983858
-0.101658410793161 0.006520163217249 -0.057465420454423 -0.124025566218982 -0.129168162721400 -0.983835984635264
-0.101600176954108 0.081578264982919 -0.054977044927313 -0.260273883029925 0.083766245313961 -0.961894340329813
-0.101591990335654 -0.050416845735921 -0.053725730531519 -0.162672922330102 -0.061105884165617 -0.984786063701616
-0.101549937264503 0.086282630275855 0.100705372871753 -0.242772899433558 0.713414770816494 0.657343657519774
-0.101392798042226 0.005541522910312 0.128459339537460 -0.213813023305992 -0.186452270901423 0.958915815773446
-0.101201642855130 -0.050460924926012 -0.053888652302905 -0.097607352711450 -0.034068356787759 -0.994641720300554
-0.101052083847876 -0.139445661054854 -0.050573814547065 -0.123161067157495 -0.012675813347176 -0.992305736803237
-0.100983016508069 -0.050878023720741 -0.053895820379881 -0.097607352711450 -0.034068356787759 -0.994641720300554
-0.100764390161008 -0.051295122515471 -0.053902988456858 -0.097607352711450 -0.034068356787759 -0.994641720300554
-0.100633054620688 0.004576031197380 0.128441011458782 -0.213813023305992 -0.186452270901423 0.958915815773446
-0.100545763813947 -0.051712221310201 -0.053910156533834 -0.097607352711450 -0.034068356787759 -0.994641720300554
-0.100497694284526 0.102766733265317 0.080426382611239 -0.273413873576624 0.714192076615773 0.644340384761871
-0.100489152950826 0.033223257387149 -0.061157697689917 -0.395008915102253 0.086667675484000 -0.914580051726442
-0.100474841966007 0.078344653459221 -0.055361474283602 -0.256769830500907 0.092625359403636 -0.962023802688833
-0.100429305161034 0.077271874870677 0.109479732717326 -0.181404217523176 0.589531723118086 0.787111718437875
-0.100373936778439 0.005473625054460 -0.057489945076048 -0.124025566218982 -0.129168162721400 -0.983835984635264
-0.100367293770082 0.033886712928517 -0.061147458360119 -0.395008915102253 0.086667675484000 -0.914580051726442
-0.100328452546969 -0.129361308847820 -0.050609844896538 -0.095547635001973 -0.010594456288212 -0.995368477972598
-0.100327137466886 -0.052129320104930 -0.053917324610810 -0.097607352711450 -0.034068356787759 -0.994641720300554
-0.100325786205329 0.113560282296037 0.070473003690619 -0.243957957038340 0.629761794874626 0.737485319795567
-0.100308880472344 -0.096459555168453 -0.049805764719377 -0.092494889856188 -0.023459835585686 -0.995436754125939
-0.100295393013847 -0.112077778451265 -0.049831277855999 -0.128534762868952 -0.023852193516586 -0.991418119462555
-0.100271757020093 -0.053181409072395 -0.053772273761853 -0.162672922330102 -0.061105884165617 -0.984786063701616
-0.100245434589337 0.034550168469884 -0.061137219030321 -0.395008915102253 0.086667675484000 -0.914580051726442
-0.100212769782664 0.083111629873634 0.104451896366153 -0.331691318785005 0.639813908804813 0.693266926329657
-0.100172193441227 0.087033021802798 -0.054888409740965 -0.260273883029925 0.083766245313961 -0.961894340329813
-0.100123575408593 0.035213624011252 -0.061126979700523 -0.395008915102253 0.086667675484000 -0.914580051726442
-0.100108511119825 -0.052546418899660 -0.053924492687787 -0.097607352711450 -0.034068356787759 -0.994641720300554
-0.100097459355684 -0.172654516668976 -0.051529296652649 -0.096640230616393 -0.002825938838174 -0.995315367055132
-0.100001716227849 0.035877079552620 -0.061116740370725 -0.395008915102253 0.086667675484000 -0.914580051726442
-0.099988475322665 0.140192735104178 -0.023539227133554 -0.241986891009084 0.873377114580174 -0.422675715303550
-0.099906734353067 0.094680476301959 0.091489811622242 -0.286106842293771 0.750993245272590 0.595106730215371
-0.099889884772764 -0.052963517694390 -0.053931660764763 -0.097607352711450 -0.034068356787759 -0.994641720300554
-0.099879857047105 0.036540535093988 -0.061106501040927 -0.395008915102253 0.086667675484000 -0.914580051726442
-0.099873311199151 0.003610539484448 0.128422683380105 -0.213813023305992 -0.186452270901423 0.958915815773446
-0.099820526618001 -0.195901042992498 -0.019078195261789 -0.569623805368455 -0.816672869001090 0.092596681339500
-0.099757997866360 0.037203990635355 -0.061096261711129 -0.395008915102253 0.086667675484000 -0.914580051726442
-0.099704385070753 0.073151753358503 -0.056179453053494 -0.094140737834537 0.052385555071715 -0.994179699601535
-0.099671258425703 -0.053380616489120 -0.053938828841739 -0.097607352711450 -0.034068356787759 -0.994641720300554
-0.099636138685616 0.037867446176723 -0.061086022381331 -0.395008915102253 0.086667675484000 -0.914580051726442
-0.099543771423165 -0.076166622139826 0.095290566969709 -0.174060918171172 -0.273513825276475 0.945987835095166
-0.099514279504872 0.038530901718091 -0.061075783051533 -0.395008915102253 0.086667675484000 -0.914580051726442
-0.099452632078642 -0.053797715283850 -0.053945996918716 -0.097607352711450 -0.034068356787759 -0.994641720300554
-0.099392420324127 0.039194357259458 -0.061065543721735 -0.395008915102253 0.086667675484000 -0.914580051726442
-0.099234005731581 -0.054214814078579 -0.053953164995692 -0.097607352711450 -0.034068356787759 -0.994641720300554
-0.099113567777613 0.002645047771517 0.128404355301427 -0.213813023305992 -0.186452270901423 0.958915815773446
-0.099089462763717 0.004427086891671 -0.057514469697673 -0.124025566218982 -0.129168162721400 -0.983835984635264
-0.099011356306757 0.038351041901236 -0.061302335959082 -0.332353848972569 0.128891505382987 -0.934306105574199
-0.098827791105226 0.038887223401077 -0.061293665739163 -0.332353848972569 0.128891505382987 -0.934306105574199
-0.098744209928345 0.092487778622678 -0.054799774554618 -0.260273883029925 0.083766245313961 -0.961894340329813
-0.098644225903695 0.039423404900919 -0.061284995519244 -0.332353848972569 0.128891505382987 -0.934306105574199
-0.098460660702164 0.039959586400761 -0.061276325299325 -0.332353848972569 0.128891505382987 -0.934306105574199
-0.098388538356784 0.152893790985356 0.005297353686997 -0.274042203402808 0.961618889183592 -0.013783421906337
-0.098353824356075 0.001679556058585 0.128386027222749 -0.213813023305992 -0.186452270901423 0.958915815773446
-0.098314093076023 -0.003639072005366 -0.056145514057359 -0.499211332131154 -0.700279081334464 -0.510291342389030
-0.098285969631987 -0.182185084929170 -0.051678123835032 -0.096640230616393 -0.002825938838174 -0.995315367055132
-0.098277095500633 0.040495767900603 -0.061267655079406 -0.332353848972569 0.128891505382987 -0.934306105574199
-0.098244644200102 -0.151715973153044 -0.050765520661498 -0.123161067157495 -0.012675813347176 -0.992305736803237
-0.098093530299101 0.041031949400445 -0.061258984859488 -0.332353848972569 0.128891505382987 -0.934306105574199
-0.098024917376760 0.148210358011206 -0.009743080365895 -0.247840097578288 0.891352681534475 -0.379559854507409
-0.097985765038286 0.087443612330264 0.100761694521391 -0.242772899433558 0.713414770816494 0.657343657519774
-0.097909965097570 0.041568130900286 -0.061250314639569 -0.332353848972569 0.128891505382987 -0.934306105574199
-0.097892479312400 -0.138454378783888 -0.050746894996623 -0.095547635001973 -0.010594456288212 -0.995368477972598
-0.097806947096093 0.087193170484184 -0.055221600243367 -0.256769830500907 0.092625359403636 -0.962023802688833
-0.097726399896039 0.042104312400128 -0.061241644419650 -0.332353848972569 0.128891505382987 -0.934306105574199
-0.097594080934538 0.000714064345653 0.128367699144071 -0.213813023305992 -0.186452270901423 0.958915815773446
-0.097550140110244 0.040175232566750 -0.061589635587240 -0.305881828170303 0.132994874979129 -0.942734676578983
-0.097542834694508 0.042640493899970 -0.061232974199731 -0.332353848972569 0.128891505382987 -0.934306105574199
-0.097359269492977 0.043176675399812 -0.061224303979812 -0.332353848972569 0.128891505382987 -0.934306105574199
-0.097316226415463 0.097942535442557 -0.054711139368271 -0.260273883029925 0.083766245313961 -0.961894340329813
-0.097269887516252 -0.121914046008930 -0.049986879283285 -0.128534762868952 -0.023852193516586 -0.991418119462555
-0.097112403961298 0.095707548413980 0.091537118810599 -0.286106842293771 0.750993245272590 0.595106730215371
-0.096978749785505 -0.117937021476052 -0.049781905107652 -0.094329448110385 -0.016861485953918 -0.995398234633062
-0.096894495779236 -0.116988250367346 0.083548855670252 -0.217216249061487 -0.334446843151589 0.917040026525339
-0.096834337513000 -0.000251427367279 0.128349371065394 -0.213813023305992 -0.186452270901423 0.958915815773446
-0.096816208883960 0.080660329440629 -0.056057296175126 -0.094140737834537 0.052385555071715 -0.994179699601535
-0.096474973498476 -0.108267029757366 -0.049953667153785 -0.094657403432324 -0.020487199552438 -0.995299075971614
-0.096274988797719 0.089106825885763 -0.055603803212692 -0.117857445671680 0.056380965000185 -0.991428670800575
-0.096074594091463 -0.001216919080211 0.128331042986716 -0.213813023305992 -0.186452270901423 0.958915815773446
-0.095888242902581 0.103397292262437 -0.054622504181923 -0.260273883029925 0.083766245313961 -0.961894340329813
-0.095733568054473 -0.034468232067725 -0.058464380530219 -0.340190424464306 -0.162396340205256 -0.926227781806794
-0.095602392168005 -0.034718491493813 -0.058468681378969 -0.340190424464306 -0.162396340205256 -0.926227781806794
-0.095471216281537 -0.034968750919901 -0.058472982227720 -0.340190424464306 -0.162396340205256 -0.926227781806794
-0.095456506077831 -0.147547448719955 -0.050883945096708 -0.095547635001973 -0.010594456288212 -0.995368477972598
-0.095437204552328 -0.163986285251234 -0.050957226775931 -0.123161067157495 -0.012675813347176 -0.992305736803237
-0.095340040395070 -0.035219010345990 -0.058477283076471 -0.340190424464306 -0.162396340205256 -0.926227781806794
-0.095236345815176 -0.036255008569988 -0.058341231874311 -0.303488624252507 -0.172126724655038 -0.937159028985396
-0.095208864508602 -0.035469269772078 -0.058481583925222 -0.340190424464306 -0.162396340205256 -0.926227781806794
-0.095139052226179 0.096041687509146 -0.055081726203133 -0.256769830500907 0.092625359403636 -0.962023802688833
-0.095077688622134 -0.035719529198166 -0.058485884773972 -0.340190424464306 -0.162396340205256 -0.926227781806794
-0.094968240509254 0.046887561848840 -0.061480432832589 -0.305881828170303 0.132994874979129 -0.942734676578983
-0.094946512735667 -0.035969788624255 -0.058490185622723 -0.340190424464306 -0.162396340205256 -0.926227781806794
-0.094863441173558 0.115652317744622 0.069833777480199 -0.233615900621242 0.785203639341941 0.573479603596412
-0.094815336849199 -0.036220048050343 -0.058494486471474 -0.340190424464306 -0.162396340205256 -0.926227781806794
-0.094784002825902 -0.177846401543610 0.033503699178249 -0.529403011506763 -0.766267877040339 0.364096130195945
-0.094684160962731 -0.036470307476431 -0.058498787320225 -0.340190424464306 -0.162396340205256 -0.926227781806794
-0.094642946318778 0.093873911242163 -0.055526717974906 -0.117857445671680 0.056380965000185 -0.991428670800575
-0.094552985076264 -0.036720566902520 -0.058503088168975 -0.340190424464306 -0.162396340205256 -0.926227781806794
-0.094467062429072 0.008453464806151 -0.060685431325494 -0.391050930281832 -0.461295017211148 -0.796420791429933
-0.094421592812070 0.088604594384674 0.100818016171029 -0.242772899433558 0.713414770816494 0.657343657519774
-0.094318073569529 0.096734620526002 0.091584425998955 -0.286106842293771 0.750993245272590 0.595106730215371
-0.094244382018657 -0.131750313566595 -0.050142480710572 -0.128534762868952 -0.023852193516586 -0.991418119462555
-0.094147835048382 0.079063485014821 0.109585529840272 -0.181404217523176 0.589531723118086 0.787111718437875
-0.093928032697168 0.088168905522754 -0.055935139296759 -0.094140737834537 0.052385555071715 -0.994179699601535
-0.093877754649893 -0.111313967981514 -0.050053258285655 -0.092494889856188 -0.023459835585686 -0.995436754125939
-0.093736941025198 -0.038665522693064 -0.058384061740884 -0.303488624252507 -0.172126724655038 -0.937159028985396
-0.093542329705350 -0.198065987337155 -0.037079898652764 -0.541783211215158 -0.765388480699938 -0.347349140861514
-0.093508993893120 -0.063014345754694 0.100015115086722 -0.312462563673587 -0.468234019829700 0.826513187418477
-0.093233067318980 -0.007193576294263 -0.056238325035723 -0.499211332131154 -0.700279081334464 -0.510291342389030
-0.093138145189696 -0.185467341335041 0.016385111541555 -0.535307481768883 -0.774029778639406 0.338118029305876
-0.093020532843262 -0.156640518656023 -0.051020995196793 -0.095547635001973 -0.010594456288212 -0.995368477972598
-0.093010903839838 0.098640996598563 -0.055449632737120 -0.117857445671680 0.056380965000185 -0.991428670800575
-0.092729186451451 0.124349137510797 0.058795584225646 -0.239043959061437 0.806134993549046 0.541298769453536
-0.092629764904554 -0.176256597349424 -0.051148932890364 -0.123161067157495 -0.012675813347176 -0.992305736803237
-0.092512201579504 0.016353203900770 -0.065136124338367 -0.314950149867893 0.036752394233632 -0.948396364721147
-0.092471157356265 0.104890204534109 -0.054941852162898 -0.256769830500907 0.092625359403636 -0.962023802688833
-0.092404560494370 0.017875730120774 -0.065112869390548 -0.314950149867893 0.036752394233632 -0.948396364721147
-0.092386340908264 0.053599891130931 -0.061371230077938 -0.305881828170303 0.132994874979129 -0.942734676578983
-0.092296919409236 0.019398256340779 -0.065089614442729 -0.314950149867893 0.036752394233632 -0.948396364721147
-0.092237536235219 -0.041076036816139 -0.058426891607456 -0.303488624252507 -0.172126724655038 -0.937159028985396
-0.092225538750257 0.016301703437459 -0.065213110841284 -0.321911907095816 -0.346656621901166 -0.881023217947182
-0.092189278324102 0.020920782560783 -0.065066359494909 -0.314950149867893 0.036752394233632 -0.948396364721147
-0.092096762474976 -0.194597993085234 -0.000544990071098 -0.536803030831623 -0.775986723117445 0.331190446171735
-0.092081637238968 0.022443308780787 -0.065043104547090 -0.314950149867893 0.036752394233632 -0.948396364721147
-0.091973996153834 0.023965835000791 -0.065019849599270 -0.314950149867893 0.036752394233632 -0.948396364721147
-0.091895444560609 -0.132505760647261 -0.050016841013105 -0.094329448110385 -0.016861485953918 -0.995398234633062
-0.091881627982951 0.140243676529951 0.034187107514743 -0.235967355052545 0.794249926605964 0.559898617104853
-0.091866355068700 0.025488361220796 -0.064996594651451 -0.314950149867893 0.036752394233632 -0.948396364721147
-0.091758713983566 0.027010887440800 -0.064973339703631 -0.314950149867893 0.036752394233632 -0.948396364721147
-0.091651072898432 0.028533413660804 -0.064950084755812 -0.314950149867893 0.036752394233632 -0.948396364721147
-0.091630669950416 -0.157923868690519 0.063564395450250 -0.400121004027566 -0.590262816427929 0.701065610109739
-0.091557036679067 0.098457129931060 0.090689126178464 -0.247416204591695 0.728572885013251 0.638722766878486
-0.091543431813298 0.030055939880808 -0.064926829807993 -0.314950149867893 0.036752394233632 -0.948396364721147
-0.091378861360898 0.103408081954963 -0.055372547499334 -0.117857445671680 0.056380965000185 -0.991428670800575
-0.091218876521061 -0.141586581124260 -0.050298082137858 -0.128534762868952 -0.023852193516586 -0.991418119462555
-0.091039856510376 0.095677481604880 -0.055812982418392 -0.094140737834537 0.052385555071715 -0.994179699601535
-0.090857420585854 0.089765576439083 0.100874337820667 -0.242772899433558 0.713414770816494 0.657343657519774
-0.090738131445240 -0.043486550939214 -0.058469721474029 -0.303488624252507 -0.172126724655038 -0.937159028985396
-0.090650041416101 -0.123177103143356 -0.050200735902490 -0.094657403432324 -0.020487199552438 -0.995299075971614
-0.090584559608693 -0.165733588592090 -0.051158045296879 -0.095547635001973 -0.010594456288212 -0.995368477972598
-0.089822325256780 -0.188526909447614 -0.051340639004796 -0.123161067157495 -0.012675813347176 -0.992305736803237
-0.089815873717871 -0.055243964224923 0.110249509160566 -0.399485897017812 -0.589383702173937 0.702166554099252
-0.089804441307274 0.060312220413021 -0.061262027323287 -0.305881828170303 0.132994874979129 -0.942734676578983
-0.089803262486351 0.113738721559071 -0.054801978122663 -0.256769830500907 0.092625359403636 -0.962023802688833
-0.089746818881958 0.108175167311363 -0.055295462261548 -0.117857445671680 0.056380965000185 -0.991428670800575
-0.089539247287644 0.018211438521686 0.131859714811388 0.008614928426752 -0.089019128300980 0.995992659513480
-0.089447042114931 0.031206258371716 -0.065438180220324 -0.263973948617619 0.117113478772087 -0.957393434039070
-0.089238726655261 -0.045897065062289 -0.058512551340601 -0.303488624252507 -0.172126724655038 -0.937159028985396
-0.088424154466085 0.018529486936299 0.131878496021872 0.008614928426752 -0.089019128300980 0.995992659513480
-0.088193371023466 -0.151422848681925 -0.050453683565144 -0.128534762868952 -0.023852193516586 -0.991418119462555
-0.088152041561938 -0.010748080583160 -0.056331136014087 -0.499211332131154 -0.700279081334464 -0.510291342389030
-0.088151680323584 0.103186057687005 -0.055690825540024 -0.094140737834537 0.052385555071715 -0.994179699601535
-0.088148586374124 -0.174826658528158 -0.051295095396964 -0.095547635001973 -0.010594456288212 -0.995368477972598
-0.088114776403018 0.112942252667762 -0.055218377023762 -0.117857445671680 0.056380965000185 -0.991428670800575
-0.088111391413579 -0.006010062182831 -0.055551899711705 -0.206494526773671 -0.249684194805029 -0.946053810983858
-0.088015776707692 -0.173331164469910 0.049409544292594 -0.483766637360234 -0.705064361384713 0.518511414418563
-0.087980588222391 -0.102714475905718 0.089540411036286 -0.180550710250485 -0.282688334107143 0.942066211466993
-0.087942368075628 -0.143149319673443 0.074763586377835 -0.299406458596150 -0.449958586443551 0.841363799456949
-0.087866364935730 0.080855095158965 0.109691326963217 -0.181404217523176 0.589531723118086 0.787111718437875
-0.087808338858641 0.035466499880579 -0.065368870434004 -0.263973948617619 0.117113478772087 -0.957393434039070
-0.087739321865282 -0.048307579185364 -0.058555381207174 -0.303488624252507 -0.172126724655038 -0.937159028985396
-0.087638985832152 0.107493025076389 0.080644076748114 -0.273413873576624 0.714192076615773 0.644340384761871
-0.087573163286703 0.151507627445406 0.021010651149226 -0.253869465887315 0.864456208112621 0.433896022735445
-0.087446628827442 -0.126168380794574 -0.050300751851933 -0.092494889856188 -0.023459835585686 -0.995436754125939
-0.087309061644526 0.018847535350912 0.131897277232357 0.008614928426752 -0.089019128300980 0.995992659513480
-0.087293248359638 0.090926558493493 0.100930659470304 -0.242772899433558 0.713414770816494 0.657343657519774
-0.087222541706284 0.067024549695111 -0.061152824568636 -0.305881828170303 0.132994874979129 -0.942734676578983
-0.087135367616437 0.122587238584034 -0.054662104082428 -0.256769830500907 0.092625359403636 -0.962023802688833
-0.086973187535265 0.099950258281292 0.090761560934442 -0.247416204591695 0.728572885013251 0.638722766878486
-0.086812139335714 -0.147074499818469 -0.050251776918557 -0.094329448110385 -0.016861485953918 -0.995398234633062
-0.086482733924078 0.117709338024163 -0.055141291785976 -0.117857445671680 0.056380965000185 -0.991428670800575
-0.086239917075303 -0.050718093308439 -0.058598211073746 -0.303488624252507 -0.172126724655038 -0.937159028985396
-0.086204849434532 0.030558903720551 0.131008477787451 0.045133505411795 0.038451721908394 0.998240668261679
-0.086193968822967 0.019165583765525 0.131916058442842 0.008614928426752 -0.089019128300980 0.995992659513480
-0.086169635602351 0.039726741389442 -0.065299560647685 -0.263973948617619 0.117113478772087 -0.957393434039070
-0.085712613139555 -0.183919728464225 -0.051432145497049 -0.095547635001973 -0.010594456288212 -0.995368477972598
-0.085581818644052 -0.058205958050374 0.110172169109042 -0.399485897017812 -0.589383702173937 0.702166554099252
-0.085304852083620 0.133582957722437 -0.050318749478813 -0.243959784752450 0.879467760176074 -0.408680905150239
-0.085263504136791 0.110694633769131 -0.055568668661657 -0.094140737834537 0.052385555071715 -0.994179699601535
-0.085200749164764 -0.053566840562008 -0.058457667486533 -0.271015979477816 -0.166082165161668 -0.948138731031958
-0.085167865525871 -0.161259116239590 -0.050609284992430 -0.128534762868952 -0.023852193516586 -0.991418119462555
-0.085078876001408 0.019483632180138 0.131934839653326 0.008614928426752 -0.089019128300980 0.995992659513480
-0.085055216800514 0.000785068622445 -0.060865132861054 -0.391050930281832 -0.461295017211148 -0.796420791429933
-0.085016130850089 0.009967989120026 -0.065355184550872 -0.321911907095816 -0.346656621901166 -0.881023217947182
-0.084850691445138 0.122476423380563 -0.055064206548190 -0.117857445671680 0.056380965000185 -0.991428670800575
-0.084825109333726 -0.138087176529345 -0.050447804651194 -0.094657403432324 -0.020487199552438 -0.995299075971614
-0.084740512285324 -0.053128607431515 -0.058641040940319 -0.303488624252507 -0.172126724655038 -0.937159028985396
-0.084640642105295 0.073736878977201 -0.061043621813985 -0.305881828170303 0.132994874979129 -0.942734676578983
-0.084585856868335 0.118583705456146 0.070006880086885 -0.233615900621242 0.785203639341941 0.573479603596412
-0.084530932346060 0.043986982898305 -0.065230250861366 -0.263973948617619 0.117113478772087 -0.957393434039070
-0.084467472746523 0.131435755608996 -0.054522230042193 -0.256769830500907 0.092625359403636 -0.962023802688833
-0.084452505657796 0.025891364702941 0.133297062864867 -0.029020165153265 -0.030679383279633 0.999107904811116
-0.084213163479978 0.025390183130056 0.133288625145580 -0.029020165153265 -0.030679383279633 0.999107904811116
-0.083973821302161 0.024889001557172 0.133280187426292 -0.029020165153265 -0.030679383279633 0.999107904811116
-0.083963783179849 0.019801680594750 0.131953620863811 0.008614928426752 -0.089019128300980 0.995992659513480
-0.083954155046072 0.019294329323373 0.138590961644735 0.047381752690683 -0.053568731979757 0.997439401901709
-0.083885718328283 0.028936522363351 0.130966116099631 0.045133505411795 0.038451721908394 0.998240668261679
-0.083792947296030 0.134262600527027 0.046980555567137 -0.242361192810196 0.819019199923568 0.520065959639907
-0.083734479124343 0.024387819984288 0.133271749707005 -0.029020165153265 -0.030679383279633 0.999107904811116
-0.083729076133422 0.092087540547902 0.100986981119942 -0.242772899433558 0.713414770816494 0.657343657519774
-0.083495136946526 0.023886638411404 0.133263311987717 -0.029020165153265 -0.030679383279633 0.999107904811116
-0.083487141917976 0.032116433119405 0.133919620086357 -0.032592697968315 0.051636835245698 0.998133935544201
-0.083276639904986 -0.193012798400293 -0.051569195597134 -0.095547635001973 -0.010594456288212 -0.995368477972598
-0.083255794768708 0.023385456838519 0.133254874268429 -0.029020165153265 -0.030679383279633 0.999107904811116
-0.083241107495345 -0.055539121554590 -0.058683870806891 -0.303488624252507 -0.172126724655038 -0.937159028985396
-0.083218648966198 0.127243508736962 -0.054987121310404 -0.117857445671680 0.056380965000185 -0.991428670800575
-0.083071015804895 -0.014302584872057 -0.056423946992451 -0.499211332131154 -0.700279081334464 -0.510291342389030
-0.083044912198070 0.030134366552665 0.134668049738156 -0.032170980193571 0.041530172417499 0.998619183078493
-0.083016452590890 0.022884275265635 0.133246436549142 -0.029020165153265 -0.030679383279633 0.999107904811116
-0.082892229089770 0.048247224407168 -0.065160941075047 -0.263973948617619 0.117113478772087 -0.957393434039070
-0.082848690358290 0.020119729009363 0.131972402074295 0.008614928426752 -0.089019128300980 0.995992659513480
-0.082783152306796 0.025791371887320 0.133431136892144 -0.030184612880892 -0.029714570716495 0.999102564020514
-0.082777110413073 0.022383093692751 0.133237998829854 -0.029020165153265 -0.030679383279633 0.999107904811116
-0.082709247299099 0.025620668417416 0.133428292753431 -0.030184612880892 -0.029714570716495 0.999102564020514
-0.082693282229385 0.042715076000424 0.130406382975508 0.062947136977513 0.063975054307091 0.995964281675171
-0.082635342291402 0.025449964947512 0.133425448614717 -0.030184612880892 -0.029714570716495 0.999102564020514
-0.082561437283705 0.025279261477608 0.133422604476004 -0.030184612880892 -0.029714570716495 0.999102564020514
-0.082537768235255 0.021881912119867 0.133229561110567 -0.029020165153265 -0.030679383279633 0.999107904811116
-0.082524049319242 -0.057537538720804 -0.058527241991641 -0.271015979477816 -0.166082165161668 -0.948138731031958
-0.082514922136290 0.027374669753093 0.135508346286993 -0.023428684017648 0.013505858592165 0.999634277397934
-0.082487532276009 0.025108558007704 0.133419760337291 -0.030184612880892 -0.029714570716495 0.999102564020514
-0.082486085170607 0.021322063339654 0.138630125343500 0.047381752690683 -0.053568731979757 0.997439401901709
-0.082466759129045 0.025742969738700 0.138427655914214 0.001583099509090 -0.023140989629775 0.999730958005652
-0.082413627268312 0.024937854537800 0.133416916198578 -0.030184612880892 -0.029714570716495 0.999102564020514
-0.082389338391463 0.101443386631525 0.090833995690420 -0.247416204591695 0.728572885013251 0.638722766878486
-0.082375327949999 0.118203209851256 -0.055446511783289 -0.094140737834537 0.052385555071715 -0.994179699601535
-0.082339722260615 0.024767151067896 0.133414072059865 -0.030184612880892 -0.029714570716495 0.999102564020514
-0.082298426057438 0.021380730546983 0.133221123391279 -0.029020165153265 -0.030679383279633 0.999107904811116
-0.082297584494016 0.032503915747698 0.133938417673063 -0.032592697968315 0.051636835245698 0.998133935544201
-0.082265817252918 0.024596447597992 0.133411227921152 -0.030184612880892 -0.029714570716495 0.999102564020514
-0.082191912245221 0.024425744128088 0.133408383782439 -0.030184612880892 -0.029714570716495 0.999102564020514
-0.082142360028275 -0.171095383797255 -0.050764886419716 -0.128534762868952 -0.023852193516586 -0.991418119462555
-0.082118007237524 0.024255040658184 0.133405539643725 -0.030184612880892 -0.029714570716495 0.999102564020514
-0.082058742504305 0.080449208259292 -0.060934419059334 -0.305881828170303 0.132994874979129 -0.942734676578983
-0.081916600126514 -0.088497962103655 0.094968585721816 -0.174060918171172 -0.273513825276475 0.945987835095166
-0.081782168760474 -0.050089818583872 -0.060478151105733 0.174951138651022 0.274772544637271 -0.945458697034551
-0.081741702705367 -0.057949635677665 -0.058726700673464 -0.303488624252507 -0.172126724655038 -0.937159028985396
-0.081733597536731 0.020437777423976 0.131991183284780 0.008614928426752 -0.089019128300980 0.995992659513480
-0.081728834110818 -0.161643238989678 -0.050486712824010 -0.094329448110385 -0.016861485953918 -0.995398234633062
-0.081586606487257 0.132010594093362 -0.054910036072617 -0.117857445671680 0.056380965000185 -0.991428670800575
-0.081584894823079 0.082646705303109 0.109797124086163 -0.181404217523176 0.589531723118086 0.787111718437875
-0.081566587222033 0.027314141006151 0.130923754411811 0.045133505411795 0.038451721908394 0.998240668261679
-0.081517398670430 0.030695812883276 0.134693910091099 -0.032170980193571 0.041530172417499 0.998619183078493
-0.081490257800869 0.027839552743093 0.135526080665870 -0.023428684017648 0.013505858592165 0.999634277397934
-0.081347763570233 -0.061167951875825 0.110094829057517 -0.399485897017812 -0.589383702173937 0.702166554099252
-0.081253525833480 0.052507465916031 -0.065091631288727 -0.263973948617619 0.117113478772087 -0.957393434039070
-0.081113398524161 0.012091801398530 -0.068272287200585 -0.229839127544663 0.031106821018219 -0.972731381798515
-0.081108027070057 0.032891398375992 0.133957215259768 -0.032592697968315 0.051636835245698 0.998133935544201
-0.081052880093140 0.012947802598335 -0.068259212704413 -0.229839127544663 0.031106821018219 -0.972731381798515
-0.081018015295142 0.023349797355934 0.138669289042265 0.047381752690683 -0.053568731979757 0.997439401901709
-0.081015503004990 -0.141022793607635 -0.050548245418210 -0.092494889856188 -0.023459835585686 -0.995436754125939
-0.080992361662118 0.013803803798140 -0.068246138208241 -0.229839127544663 0.031106821018219 -0.972731381798515
-0.080941748399036 0.019744233473890 -0.068058451334353 -0.223547266723685 0.056077547008329 -0.973078582778338
-0.080931843231097 0.014659804997945 -0.068233063712069 -0.229839127544663 0.031106821018219 -0.972731381798515
-0.080896598355253 0.028874259773747 0.134932358751931 -0.023609207104941 0.015190189112454 0.999605854071796
-0.080871324800076 0.015515806197750 -0.068219989215898 -0.229839127544663 0.031106821018219 -0.972731381798515
-0.080810806369055 0.016371807397554 -0.068206914719726 -0.229839127544663 0.031106821018219 -0.972731381798515
-0.080750287938034 0.017227808597359 -0.068193840223554 -0.229839127544663 0.031106821018219 -0.972731381798515
-0.080699481236000 0.021063243587252 -0.068038094613043 -0.223547266723685 0.056077547008329 -0.973078582778338
-0.080689769507013 0.018083809797164 -0.068180765727382 -0.229839127544663 0.031106821018219 -0.972731381798515
-0.080668288750438 -0.128339525726746 0.083252464700891 -0.217216249061487 -0.334446843151589 0.917040026525339
-0.080629251075992 0.018939810996969 -0.068167691231211 -0.229839127544663 0.031106821018219 -0.972731381798515
-0.080618504715172 0.020755825838589 0.132009964495265 0.008614928426752 -0.089019128300980 0.995992659513480
-0.080568732644971 0.019795812196774 -0.068154616735039 -0.229839127544663 0.031106821018219 -0.972731381798515
-0.080490225038743 0.029040872631954 0.134939424807954 -0.023609207104941 0.015190189112454 0.999605854071796
-0.080465593465448 0.028304435733092 0.135543815044747 -0.023428684017648 0.013505858592165 0.999634277397934
-0.080457214072964 0.022382253700613 -0.068017737891732 -0.223547266723685 0.056077547008329 -0.973078582778338
-0.080283285686852 0.028144975767585 0.138479798083518 0.001583099509090 -0.023140989629775 0.999730958005652
-0.080214946909928 0.023701263813975 -0.067997381170422 -0.223547266723685 0.056077547008329 -0.973078582778338
-0.080164903907206 0.093248522602311 0.101043302769580 -0.242772899433558 0.713414770816494 0.657343657519774
-0.080140613767996 0.033238461530984 0.135100106923881 -0.055121568878578 -0.015251256817410 0.998363166292634
-0.080134809362626 0.031581970097706 0.135075122400036 -0.055121568878578 -0.015251256817410 0.998363166292634
-0.080129004957257 0.029925478664428 0.135050137876191 -0.055121568878578 -0.015251256817410 0.998363166292634
-0.080123200551888 0.028268987231150 0.135025153352345 -0.055121568878578 -0.015251256817410 0.998363166292634
-0.080117396146519 0.026612495797871 0.135000168828500 -0.055121568878578 -0.015251256817410 0.998363166292634
-0.080111591741149 0.024956004364593 0.134975184304655 -0.055121568878578 -0.015251256817410 0.998363166292634
-0.080105787335780 0.023299512931315 0.134950199780810 -0.055121568878578 -0.015251256817410 0.998363166292634
-0.080099982930411 0.021643021498037 0.134925215256965 -0.055121568878578 -0.015251256817410 0.998363166292634
-0.080094178525042 0.019986530064759 0.134900230733119 -0.055121568878578 -0.015251256817410 0.998363166292634
-0.080088374119672 0.018330038631481 0.134875246209274 -0.055121568878578 -0.015251256817410 0.998363166292634
-0.080083851722232 0.029207485490161 0.134946490863978 -0.023609207104941 0.015190189112454 0.999605854071796
-0.080060278608274 -0.020529952378136 -0.051278035743793 -0.196331734206033 -0.255933468548054 -0.946547362692757
-0.079989885142789 0.031257259213888 0.134719770444041 -0.032170980193571 0.041530172417499 0.998619183078493
-0.079972679746892 0.025020273927336 -0.067977024449111 -0.223547266723685 0.056077547008329 -0.973078582778338
-0.079918469646098 0.033278881004286 0.133976012846474 -0.032592697968315 0.051636835245698 0.998133935544201
-0.079917874101871 0.080011350696300 -0.061681647496327 -0.202543534906451 0.121824311511774 -0.971666071030723
-0.079847349473720 -0.061508236879600 -0.058596816496750 -0.271015979477816 -0.166082165161668 -0.948138731031958
-0.079757767483869 0.040661494646581 0.130352762307446 0.062947136977513 0.063975054307091 0.995964281675171
-0.079730412583856 0.026339284040698 -0.067956667727800 -0.223547266723685 0.056077547008329 -0.973078582778338
-0.079677478405721 0.029374098348368 0.134953556920002 -0.023609207104941 0.015190189112454 0.999605854071796
-0.079646381640760 0.016519978166686 0.132212484303608 0.029473278664939 0.014064945387927 0.999466609325181
-0.079614822577190 0.056767707424894 -0.065022321502408 -0.263973948617619 0.117113478772087 -0.957393434039070
-0.079549945419677 0.025377531372215 0.138708452741030 0.047381752690683 -0.053568731979757 0.997439401901709
-0.079503411893612 0.021073874253202 0.132028745705749 0.008614928426752 -0.089019128300980 0.995992659513480
-0.079488145420820 0.027658294154060 -0.067936311006490 -0.223547266723685 0.056077547008329 -0.973078582778338
-0.079487151763207 0.125711785933382 -0.055324354904922 -0.094140737834537 0.052385555071715 -0.994179699601535
-0.079476842903315 0.087161537541382 -0.060825216304684 -0.305881828170303 0.132994874979129 -0.942734676578983
-0.079440929130026 0.028769318723092 0.135561549423624 -0.023428684017648 0.013505858592165 0.999634277397934
-0.079422793016628 0.023130662590572 0.135917894970991 -0.030128767619715 -0.012349014016520 0.999469739018914
-0.079373693007560 0.016313940994710 0.132207342434479 0.029473278664939 0.014064945387927 0.999466609325181
-0.079357637185085 0.023733713139801 0.135927310108064 -0.030128767619715 -0.012349014016520 0.999469739018914
-0.079292481353541 0.024336763689030 0.135936725245137 -0.030128767619715 -0.012349014016520 0.999469739018914
-0.079271105089210 0.029540711206575 0.134960622976026 -0.023609207104941 0.015190189112454 0.999605854071796
-0.079247456115783 0.025691759648951 0.130881392723991 0.045133505411795 0.038451721908394 0.998240668261679
-0.079245878257784 0.028977304267421 -0.067915954285179 -0.223547266723685 0.056077547008329 -0.973078582778338
-0.079227325521998 0.024939814238260 0.135946140382209 -0.030128767619715 -0.012349014016520 0.999469739018914
