ply
format ascii 1.0
element vertex 428
property double x
property double y
property double z
property double nx
property double ny
property double nz
end_header
-0.270945128000207 0.021640314703391 0.033238410432012 -0.985175268075528 -0.000000000000000 0.171550841362877
-0.270945128000207 0.021826498626553 0.033238410432012 -0.985175268075528 -0.000000000000000 0.171550841362877
-0.270945128000207 0.022012682549716 0.033238410432012 -0.985175268075528 -0.000000000000000 0.171550841362877
-0.270945128000207 0.022198866472878 0.033238410432012 -0.985175268075528 -0.000000000000000 0.171550841362877
-0.270945128000207 0.022385050396040 0.033238410432012 -0.985175268075528 -0.000000000000000 0.171550841362877
-0.270698917552563 0.008738835938477 0.010056749823019 -0.993549035477911 -0.000000000000000 -0.113403324911192
-0.270698917552563 0.011979075646251 0.010056749823019 -0.993549035477911 -0.000000000000000 -0.113403324911192
-0.270698917552563 0.015219315354025 0.010056749823019 -0.993549035477911 -0.000000000000000 -0.113403324911192
-0.270698917552563 0.018459555061799 0.010056749823019 -0.993549035477911 -0.000000000000000 -0.113403324911192
-0.270698917552563 0.021699794769573 0.010056749823019 -0.993549035477911 -0.000000000000000 -0.113403324911192
-0.270698917552563 0.024940034477347 0.010056749823019 -0.993549035477911 -0.000000000000000 -0.113403324911192
-0.270698917552563 0.028180274185122 0.010056749823019 -0.993549035477911 -0.000000000000000 -0.113403324911192
-0.270698917552563 0.031420513892896 0.010056749823019 -0.993549035477911 -0.000000000000000 -0.113403324911192
-0.270698917552563 0.034660753600670 0.010056749823019 -0.993549035477911 -0.000000000000000 -0.113403324911192
-0.270698917552563 0.037900993308444 0.010056749823019 -0.993549035477911 -0.000000000000000 -0.113403324911192
-0.270687776808325 0.038028306601936 0.010018871292612 -0.988929846238378 0.103940715220288 -0.105896586056550
-0.270628730863868 0.004713753879549 0.011249923530835 -0.984367076589546 -0.103461148805654 -0.142538588509796
-0.270609542472267 0.004531188528575 0.011249923530835 -0.984367076589546 -0.103461148805654 -0.142538588509796
-0.270590354080667 0.004348623177601 0.011249923530835 -0.984367076589546 -0.103461148805654 -0.142538588509796
-0.270571165689067 0.004166057826626 0.011249923530835 -0.984367076589546 -0.103461148805654 -0.142538588509796
-0.270551977297467 0.003983492475652 0.011249923530835 -0.984367076589546 -0.103461148805654 -0.142538588509796
-0.270532788905867 0.003800927124678 0.011249923530835 -0.984367076589546 -0.103461148805654 -0.142538588509796
-0.270513600514267 0.003618361773704 0.011249923530835 -0.984367076589546 -0.103461148805654 -0.142538588509796
-0.270507948487013 0.039739258790089 0.010018871292612 -0.988929846238378 0.103940715220288 -0.105896586056550
-0.270494412122666 0.003435796422730 0.011249923530835 -0.984367076589546 -0.103461148805654 -0.142538588509796
-0.270475223731066 0.003253231071755 0.011249923530835 -0.984367076589546 -0.103461148805654 -0.142538588509796
-0.270456035339466 0.003070665720781 0.011249923530835 -0.984367076589546 -0.103461148805654 -0.142538588509796
-0.270328120165701 0.041450210978243 0.010018871292612 -0.988929846238378 0.103940715220288 -0.105896586056550
-0.270148291844389 0.043161163166397 0.010018871292612 -0.988929846238378 0.103940715220288 -0.105896586056550
-0.270037971604446 0.000531897976210 0.010738563370342 -0.946858420598531 -0.253709949145985 -0.197712905613155
-0.269968463523077 0.044872115354551 0.010018871292612 -0.988929846238378 0.103940715220288 -0.105896586056550
-0.269788635201765 0.046583067542704 0.010018871292612 -0.988929846238378 0.103940715220288 -0.105896586056550
-0.269608806880453 0.048294019730858 0.010018871292612 -0.988929846238378 0.103940715220288 -0.105896586056550
-0.269428978559141 0.050004971919012 0.010018871292612 -0.988929846238378 0.103940715220288 -0.105896586056550
-0.269337518606763 0.037829645412977 0.033200531901605 -0.969524718688421 0.101901154128917 0.222795813783233
-0.269335290457916 -0.004005438972671 0.033238410432012 -0.980259969066371 -0.000000000000000 0.197712905613157
-0.269335290457916 0.000628679967125 0.033238410432012 -0.980259969066371 -0.000000000000000 0.197712905613157
-0.269335290457916 0.005262798906920 0.033238410432012 -0.980259969066371 -0.000000000000000 0.197712905613157
-0.269335290457916 0.009896917846716 0.033238410432012 -0.980259969066371 -0.000000000000000 0.197712905613157
-0.269335290457916 0.014531036786511 0.033238410432012 -0.980259969066371 -0.000000000000000 0.197712905613157
-0.269335290457916 0.019165155726307 0.033238410432012 -0.980259969066371 -0.000000000000000 0.197712905613157
-0.269335290457916 0.023799274666102 0.033238410432012 -0.980259969066371 -0.000000000000000 0.197712905613157
-0.269335290457916 0.028433393605897 0.033238410432012 -0.980259969066371 -0.000000000000000 0.197712905613157
-0.269335290457916 0.033067512545693 0.033238410432012 -0.980259969066371 -0.000000000000000 0.197712905613157
-0.269335290457916 0.037701631485488 0.033238410432012 -0.980259969066371 -0.000000000000000 0.197712905613157
-0.269249150237829 0.051715924107166 0.010018871292612 -0.988929846238378 0.103940715220288 -0.105896586056550
-0.269155720384067 0.039559339960842 0.033200531901605 -0.969524718688421 0.101901154128917 0.222795813783233
-0.269069321916517 0.053426876295319 0.010018871292612 -0.988929846238378 0.103940715220288 -0.105896586056550
-0.268973922161370 0.041289034508708 0.033200531901605 -0.969524718688421 0.101901154128917 0.222795813783233
-0.268860694753407 -0.007001918320874 0.034583098261455 -0.981102495365030 -0.155391369629396 0.115288402856540
-0.268792123938674 0.043018729056574 0.033200531901605 -0.969524718688421 0.101901154128917 0.222795813783233
-0.268788540608184 -0.007457481664563 0.034583098261455 -0.981102495365030 -0.155391369629396 0.115288402856540
-0.268787242189665 -0.004135887746273 0.010738563370342 -0.946858420598531 -0.253709949145985 -0.197712905613155
-0.268716386462962 -0.007913045008251 0.034583098261455 -0.981102495365030 -0.155391369629396 0.115288402856540
-0.268691564381023 0.054554834111360 0.009090847297644 -0.918754186524532 0.352676689244988 -0.177510274651468
-0.268644232317739 -0.008368608351940 0.034583098261455 -0.981102495365030 -0.155391369629396 0.115288402856540
-0.268610325715977 0.044748423604440 0.033200531901605 -0.969524718688421 0.101901154128917 0.222795813783233
-0.268572078172517 -0.008824171695628 0.034583098261455 -0.981102495365030 -0.155391369629396 0.115288402856540
-0.268499924027294 -0.009279735039317 0.034583098261455 -0.981102495365030 -0.155391369629396 0.115288402856540
-0.268428527493280 0.046478118152306 0.033200531901605 -0.969524718688421 0.101901154128917 0.222795813783233
-0.268427769882072 -0.009735298383006 0.034583098261455 -0.981102495365030 -0.155391369629396 0.115288402856540
-0.268355615736849 -0.010190861726694 0.034583098261455 -0.981102495365030 -0.155391369629396 0.115288402856540
-0.268283461591627 -0.010646425070383 0.034583098261455 -0.981102495365030 -0.155391369629396 0.115288402856540
-0.268246729270584 0.048207812700171 0.033200531901605 -0.969524718688421 0.101901154128917 0.222795813783233
-0.268211307446404 -0.011101988414071 0.034583098261455 -0.981102495365030 -0.155391369629396 0.115288402856540
-0.268128210030937 0.056022422368318 0.009090847297644 -0.918754186524532 0.352676689244988 -0.177510274651468
-0.268064931047887 0.049937507248037 0.033200531901605 -0.969524718688421 0.101901154128917 0.222795813783233
-0.268036241619742 -0.012207310542325 0.033920223979335 -0.964303934750808 -0.258384460574633 0.057925745205959
-0.267883132825190 0.051667201795903 0.033200531901605 -0.969524718688421 0.101901154128917 0.222795813783233
-0.267701334602494 0.053396896343769 0.033200531901605 -0.969524718688421 0.101901154128917 0.222795813783233
-0.267564855680850 0.057490010625276 0.009090847297644 -0.918754186524532 0.352676689244988 -0.177510274651468
-0.267536512774884 -0.008803673468756 0.010738563370342 -0.946858420598531 -0.253709949145985 -0.197712905613155
-0.267462753193499 0.053950893322603 0.033636135001284 -0.908147131393546 0.348605022262565 0.231826068842549
-0.267155365034360 0.059508046074530 0.031571755094111 -0.908606206675254 0.348781244752586 0.229752920547364
-0.267152219835229 -0.015506524757127 0.033920223979335 -0.964303934750808 -0.258384460574633 0.057925745205959
-0.267001501330764 0.058957598882234 0.009090847297644 -0.918754186524532 0.352676689244988 -0.177510274651468
-0.266947790484567 0.060048796264305 0.031571755094111 -0.908606206675254 0.348781244752586 0.229752920547364
-0.266917948290536 0.055370158617703 0.033636135001284 -0.908147131393546 0.348605022262565 0.231826068842549
-0.266740215934773 0.060589546454079 0.031571755094111 -0.908606206675254 0.348781244752586 0.229752920547364
-0.266532641384980 0.061130296643854 0.031571755094111 -0.908606206675254 0.348781244752586 0.229752920547364
-0.266438146980677 0.060425187139192 0.009090847297644 -0.918754186524532 0.352676689244988 -0.177510274651468
-0.266373143387573 0.056789423912803 0.033636135001284 -0.908147131393546 0.348605022262565 0.231826068842549
-0.266325066835187 0.061671046833629 0.031571755094111 -0.908606206675254 0.348781244752586 0.229752920547364
-0.266285783360104 -0.013471459191238 0.010738563370342 -0.946858420598531 -0.253709949145985 -0.197712905613155
-0.266268198050715 -0.018805738971930 0.033920223979335 -0.964303934750808 -0.258384460574633 0.057925745205959
-0.266117492285394 0.062211797023404 0.031571755094111 -0.908606206675254 0.348781244752586 0.229752920547364
-0.265909917735601 0.062752547213179 0.031571755094111 -0.908606206675254 0.348781244752586 0.229752920547364
-0.265874792630591 0.061892775396149 0.009090847297644 -0.918754186524532 0.352676689244988 -0.177510274651468
-0.265828338484611 0.058208689207903 0.033636135001284 -0.908147131393546 0.348605022262565 0.231826068842549
-0.265702343185808 0.063293297402953 0.031571755094111 -0.908606206675254 0.348781244752586 0.229752920547364
-0.265494768636015 0.063834047592728 0.031571755094111 -0.908606206675254 0.348781244752586 0.229752920547364
-0.265384176266202 -0.022104953186732 0.033920223979335 -0.964303934750808 -0.258384460574633 0.057925745205959
-0.265311438280504 0.063360363653107 0.009090847297644 -0.918754186524532 0.352676689244988 -0.177510274651468
-0.265287194086221 0.064374797782503 0.031571755094111 -0.908606206675254 0.348781244752586 0.229752920547364
-0.265283533581648 0.059627954503003 0.033636135001284 -0.908147131393546 0.348605022262565 0.231826068842549
-0.265035053945323 -0.018139244913721 0.010738563370342 -0.946858420598531 -0.253709949145985 -0.197712905613155
-0.264748083930418 0.064827951910065 0.009090847297644 -0.918754186524532 0.352676689244988 -0.177510274651468
-0.264738728678685 0.061047219798102 0.033636135001284 -0.908147131393546 0.348605022262565 0.231826068842549
-0.264500154481688 -0.025404167401534 0.033920223979335 -0.964303934750808 -0.258384460574633 0.057925745205959
-0.264193923775723 0.062466485093202 0.033636135001284 -0.908147131393546 0.348605022262565 0.231826068842549
-0.264184729580331 0.066295540167023 0.009090847297644 -0.918754186524532 0.352676689244988 -0.177510274651468
-0.263997759893821 0.040146889221139 -0.012727186216702 -0.815982573819860 0.313226363305076 -0.485861795733101
-0.263880782079329 0.018847283641098 -0.013124910785974 -0.893921866513536 -0.000000000000000 -0.448222820223331
-0.263880782079329 0.021162988163933 -0.013124910785974 -0.893921866513536 -0.000000000000000 -0.448222820223331
-0.263880782079329 0.023478692686769 -0.013124910785974 -0.893921866513536 -0.000000000000000 -0.448222820223331
-0.263880782079329 0.025794397209605 -0.013124910785974 -0.893921866513536 -0.000000000000000 -0.448222820223331
-0.263880782079329 0.028110101732440 -0.013124910785974 -0.893921866513536 -0.000000000000000 -0.448222820223331
-0.263880782079329 0.030425806255276 -0.013124910785974 -0.893921866513536 -0.000000000000000 -0.448222820223331
-0.263880782079329 0.032741510778112 -0.013124910785974 -0.893921866513536 -0.000000000000000 -0.448222820223331
-0.263880782079329 0.035057215300947 -0.013124910785974 -0.893921866513536 -0.000000000000000 -0.448222820223331
-0.263880782079329 0.037372919823783 -0.013124910785974 -0.893921866513536 -0.000000000000000 -0.448222820223331
-0.263880782079329 0.039688624346619 -0.013124910785974 -0.893921866513536 -0.000000000000000 -0.448222820223331
-0.263784324530542 -0.022807030636204 0.010738563370342 -0.946858420598531 -0.253709949145985 -0.197712905613155
-0.263649118872760 0.063885750388302 0.033636135001284 -0.908147131393546 0.348605022262565 0.231826068842549
-0.263621375230245 0.067763128423981 0.009090847297644 -0.918754186524532 0.352676689244988 -0.177510274651468
-0.263616132697175 -0.028703381616336 0.033920223979335 -0.964303934750808 -0.258384460574633 0.057925745205959
-0.263479970129703 0.011327057920758 -0.013143850051177 -0.873312665697966 -0.138319137784901 -0.467111126022443
-0.263400218612711 0.010823526659550 -0.013143850051177 -0.873312665697966 -0.138319137784901 -0.467111126022443
-0.263320467095719 0.010319995398343 -0.013143850051177 -0.873312665697966 -0.138319137784901 -0.467111126022443
-0.263240715578727 0.009816464137135 -0.013143850051177 -0.873312665697966 -0.138319137784901 -0.467111126022443
-0.263160964061734 0.009312932875928 -0.013143850051177 -0.873312665697966 -0.138319137784901 -0.467111126022443
-0.263104313969797 0.065305015683401 0.033636135001284 -0.908147131393546 0.348605022262565 0.231826068842549
-0.263081212544742 0.008809401614720 -0.013143850051177 -0.873312665697966 -0.138319137784901 -0.467111126022443
-0.263001461027750 0.008305870353513 -0.013143850051177 -0.873312665697966 -0.138319137784901 -0.467111126022443
-0.262921709510757 0.007802339092305 -0.013143850051177 -0.873312665697966 -0.138319137784901 -0.467111126022443
-0.262841957993765 0.007298807831097 -0.013143850051177 -0.873312665697966 -0.138319137784901 -0.467111126022443
-0.262762206476773 0.006795276569890 -0.013143850051177 -0.873312665697966 -0.138319137784901 -0.467111126022443
-0.262747758361025 0.043403254545077 -0.012727186216702 -0.815982573819860 0.313226363305076 -0.485861795733101
-0.262732110912661 -0.032002595831138 0.033920223979335 -0.964303934750808 -0.258384460574633 0.057925745205959
-0.262675445761209 0.004666480532730 -0.012443097238651 -0.863950323522005 -0.231494791488328 -0.447213595499956
-0.262559509066834 0.066724280978501 0.033636135001284 -0.908147131393546 0.348605022262565 0.231826068842549
-0.262533595115761 -0.027474816358686 0.010738563370342 -0.946858420598531 -0.253709949145985 -0.197712905613155
-0.261848089128148 -0.035301810045941 0.033920223979335 -0.964303934750808 -0.258384460574633 0.057925745205959
-0.261552725131688 0.000476430100653 -0.012443097238651 -0.863950323522005 -0.231494791488328 -0.447213595499956
-0.261497756828228 0.046659619869016 -0.012727186216702 -0.815982573819860 0.313226363305076 -0.485861795733101
-0.261282865700981 -0.032142602081169 0.010738563370342 -0.946858420598531 -0.253709949145985 -0.197712905613155
-0.261166896783121 0.024249350479286 0.056382192510598 -0.867147655908978 0.091140891236737 0.489640971320966
-0.261153527890036 -0.022552877265361 0.056420071041005 -0.894427190999916 -0.000000000000000 0.447213595499957
-0.261153527890036 0.024110805133621 0.056420071041005 -0.894427190999916 -0.000000000000000 0.447213595499957
-0.260988109606786 0.071387507619908 0.029961917551819 -0.794419404600739 0.577179482515134 0.189107521154951
-0.260972821538871 0.026095853084625 0.056382192510598 -0.867147655908978 0.091140891236737 0.489640971320966
-0.260964067343634 -0.038601024260743 0.033920223979335 -0.964303934750808 -0.258384460574633 0.057925745205959
-0.260778746294621 0.027942355689964 0.056382192510598 -0.867147655908978 0.091140891236737 0.489640971320966
-0.260766434889866 0.071692616692502 0.006780256942826 -0.794419404600739 0.577179482515134 -0.189107521154951
-0.260740790037645 0.049582861621488 -0.014791566123875 -0.789364637812539 0.303008694984991 -0.533937448896939
-0.260698985525154 -0.023784371537714 0.057101884588328 -0.913079760634408 -0.244658984487192 0.326232021772095
-0.260584671050370 0.029788858295302 0.056382192510598 -0.867147655908978 0.091140891236737 0.489640971320966
-0.260430004502167 -0.003713620331423 -0.012443097238651 -0.863950323522005 -0.231494791488328 -0.447213595499956
-0.260414373317845 -0.024846558755845 0.057101884588328 -0.913079760634408 -0.244658984487192 0.326232021772095
-0.260390595806120 0.031635360900641 0.056382192510598 -0.867147655908978 0.091140891236737 0.489640971320966
-0.260247755295432 0.049915985192954 -0.012727186216702 -0.815982573819860 0.313226363305076 -0.485861795733101
-0.260196520561870 0.033481863505980 0.056382192510598 -0.867147655908978 0.091140891236737 0.489640971320966
-0.260137382420003 0.072558433139050 0.029961917551819 -0.794419404600739 0.577179482515134 0.189107521154951
-0.260129761110536 -0.025908745973976 0.057101884588328 -0.913079760634408 -0.244658984487192 0.326232021772095
-0.260123041025971 0.051192152816524 -0.014791566123875 -0.789364637812539 0.303008694984991 -0.533937448896939
-0.260080045559120 -0.041900238475545 0.033920223979335 -0.964303934750808 -0.258384460574633 0.057925745205959
-0.260032136286200 -0.036810387803652 0.010738563370342 -0.946858420598531 -0.253709949145985 -0.197712905613155
-0.260002445317620 0.035328366111319 0.056382192510598 -0.867147655908978 0.091140891236737 0.489640971320966
-0.259917777767049 0.047921778511776 0.053389788608457 -0.757359825228721 0.290723198486014 0.584710284663767
-0.259845148903227 -0.026970933192107 0.057101884588328 -0.913079760634408 -0.244658984487192 0.326232021772095
-0.259808370073370 0.037174868716657 0.056382192510598 -0.867147655908978 0.091140891236737 0.489640971320966
-0.259614294829119 0.039021371321996 0.056382192510598 -0.867147655908978 0.091140891236737 0.489640971320966
-0.259599745659676 -0.043447388280251 0.032840685862740 -0.912106907230107 -0.406096159166895 0.056097230707278
-0.259560536695918 -0.028033120410237 0.057101884588328 -0.913079760634408 -0.244658984487192 0.326232021772095
-0.259505292014298 0.052801444011561 -0.014791566123875 -0.789364637812539 0.303008694984991 -0.533937448896939
-0.259442202823259 0.073515265767489 0.006780256942826 -0.794419404600739 0.577179482515134 -0.189107521154951
-0.259420219584869 0.040867873927334 0.056382192510598 -0.867147655908978 0.091140891236737 0.489640971320966
-0.259343584002816 0.049417604407996 0.053389788608457 -0.757359825228721 0.290723198486014 0.584710284663767
-0.259307283872647 -0.007903670763500 -0.012443097238651 -0.863950323522005 -0.231494791488328 -0.447213595499956
-0.259286655233219 0.073729358658193 0.029961917551819 -0.794419404600739 0.577179482515134 0.189107521154951
-0.259275924488609 -0.029095307628368 0.057101884588328 -0.913079760634408 -0.244658984487192 0.326232021772095
-0.259042886509201 -0.044698114410103 0.032840685862740 -0.912106907230107 -0.406096159166895 0.056097230707278
-0.258997753762635 0.053172350516893 -0.012727186216702 -0.815982573819860 0.313226363305076 -0.485861795733101
-0.258991312281301 -0.030157494846499 0.057101884588328 -0.913079760634408 -0.244658984487192 0.326232021772095
-0.258887543002624 0.054410735206597 -0.014791566123875 -0.789364637812539 0.303008694984991 -0.533937448896939
-0.258781406871419 -0.041478173526135 0.010738563370342 -0.946858420598531 -0.253709949145985 -0.197712905613155
-0.258769390238583 0.050913430304215 0.053389788608457 -0.757359825228721 0.290723198486014 0.584710284663767
-0.258706700073992 -0.031219682064630 0.057101884588328 -0.913079760634408 -0.244658984487192 0.326232021772095
-0.258486027358727 -0.045948840539954 0.032840685862740 -0.912106907230107 -0.406096159166895 0.056097230707278
-0.258435928046436 0.074900284177335 0.029961917551819 -0.794419404600739 0.577179482515134 0.189107521154951
-0.258422087866683 -0.032281869282761 0.057101884588328 -0.913079760634408 -0.244658984487192 0.326232021772095
-0.258269793990950 0.056020026401634 -0.014791566123875 -0.789364637812539 0.303008694984991 -0.533937448896939
-0.258195196474350 0.052409256200435 0.053389788608457 -0.757359825228721 0.290723198486014 0.584710284663767
-0.258184563243126 -0.012093721195577 -0.012443097238651 -0.863950323522005 -0.231494791488328 -0.447213595499956
-0.258137475659374 -0.033344056500892 0.057101884588328 -0.913079760634408 -0.244658984487192 0.326232021772095
-0.258117970756651 0.075337914842476 0.006780256942826 -0.794419404600739 0.577179482515134 -0.189107521154951
-0.257929168208252 -0.047199566669805 0.032840685862740 -0.912106907230107 -0.406096159166895 0.056097230707278
-0.257774960315939 -0.044193318779659 0.011022652348394 -0.893362280688324 -0.397750513735098 -0.209041537180588
-0.257747752229839 0.056428715840832 -0.012727186216702 -0.815982573819860 0.313226363305076 -0.485861795733101
-0.257652044979277 0.057629317596670 -0.014791566123875 -0.789364637812539 0.303008694984991 -0.533937448896939
-0.257621002710116 0.053905082096654 0.053389788608457 -0.757359825228721 0.290723198486014 0.584710284663767
-0.257585200859652 0.076071209696477 0.029961917551819 -0.794419404600739 0.577179482515134 0.189107521154951
-0.257422982395816 -0.039884589391999 0.051420105027301 -0.813931206013522 -0.469923400893744 0.341596237054555
-0.257372309057777 -0.048450292799656 0.032840685862740 -0.912106907230107 -0.406096159166895 0.056097230707278
-0.257061842613605 -0.016283771627654 -0.012443097238651 -0.863950323522005 -0.231494791488328 -0.447213595499956
-0.257046808945883 0.055400907992874 0.053389788608457 -0.757359825228721 0.290723198486014 0.584710284663767
-0.257034295967603 0.059238608791707 -0.014791566123875 -0.789364637812539 0.303008694984991 -0.533937448896939
-0.256987130117573 -0.045962814376782 0.011022652348394 -0.893362280688324 -0.397750513735098 -0.209041537180588
-0.256815449907303 -0.049701018929508 0.032840685862740 -0.912106907230107 -0.406096159166895 0.056097230707278
-0.256793738690044 0.077160563917463 0.006780256942826 -0.794419404600739 0.577179482515134 -0.189107521154951
-0.256734473672868 0.077242135215619 0.029961917551819 -0.794419404600739 0.577179482515134 0.189107521154951
-0.256698322436925 -0.041139737259008 0.051420105027301 -0.813931206013522 -0.469923400893744 0.341596237054555
-0.256497750697042 0.059685081164770 -0.012727186216702 -0.815982573819860 0.313226363305076 -0.485861795733101
-0.256472615181650 0.056896733889093 0.053389788608457 -0.757359825228721 0.290723198486014 0.584710284663767
-0.256416546955929 0.060847899986743 -0.014791566123875 -0.789364637812539 0.303008694984991 -0.533937448896939
-0.256258590756828 -0.050951745059359 0.032840685862740 -0.912106907230107 -0.406096159166895 0.056097230707278
-0.256199299919207 -0.047732309973905 0.011022652348394 -0.893362280688324 -0.397750513735098 -0.209041537180588
-0.255973662478034 -0.042394885126018 0.051420105027301 -0.813931206013522 -0.469923400893744 0.341596237054555
-0.255939121984085 -0.020473822059731 -0.012443097238651 -0.863950323522005 -0.231494791488328 -0.447213595499956
-0.255898421417417 0.058392559785313 0.053389788608457 -0.757359825228721 0.290723198486014 0.584710284663767
-0.255883746486085 0.078413060734761 0.029961917551819 -0.794419404600739 0.577179482515134 0.189107521154951
-0.255798797944256 0.062457191181780 -0.014791566123875 -0.789364637812539 0.303008694984991 -0.533937448896939
-0.255701731606353 -0.052202471189210 0.032840685862740 -0.912106907230107 -0.406096159166895 0.056097230707278
-0.255469506623436 0.078983212992450 0.006780256942826 -0.794419404600739 0.577179482515134 -0.189107521154951
-0.255411469720840 -0.049501805571028 0.011022652348394 -0.893362280688324 -0.397750513735098 -0.209041537180588
-0.255324227653183 0.059888385681532 0.053389788608457 -0.757359825228721 0.290723198486014 0.584710284663767
-0.255249002519144 -0.043650032993028 0.051420105027301 -0.813931206013522 -0.469923400893744 0.341596237054555
-0.255247749164246 0.062941446488709 -0.012727186216702 -0.815982573819860 0.313226363305076 -0.485861795733101
-0.255181048932582 0.064066482376816 -0.014791566123875 -0.789364637812539 0.303008694984991 -0.533937448896939
-0.255144872455879 -0.053453197319061 0.032840685862740 -0.912106907230107 -0.406096159166895 0.056097230707278
-0.255033019299301 0.079583986253904 0.029961917551819 -0.794419404600739 0.577179482515134 0.189107521154951
-0.254816401354564 -0.024663872491807 -0.012443097238651 -0.863950323522005 -0.231494791488328 -0.447213595499956
-0.254750033888950 0.061384211577752 0.053389788608457 -0.757359825228721 0.290723198486014 0.584710284663767
-0.254623639522474 -0.051271301168151 0.011022652348394 -0.893362280688324 -0.397750513735098 -0.209041537180588
-0.254588013305404 -0.054703923448913 0.032840685862740 -0.912106907230107 -0.406096159166895 0.056097230707278
-0.254524342560253 -0.044905180860037 0.051420105027301 -0.813931206013522 -0.469923400893744 0.341596237054555
-0.254326006777202 0.066637459622645 0.050416323971519 -0.684167492362352 0.497076779480031 0.533694217409531
-0.254182292112518 0.080754911773046 0.029961917551819 -0.794419404600739 0.577179482515134 0.189107521154951
-0.254145274556828 0.080805862067437 0.006780256942826 -0.794419404600739 0.577179482515134 -0.189107521154951
-0.253997747631450 0.066197811812647 -0.012727186216702 -0.815982573819860 0.313226363305076 -0.485861795733101
-0.253835809324108 -0.053040796765274 0.011022652348394 -0.893362280688324 -0.397750513735098 -0.209041537180588
-0.253799682601362 -0.046160328727047 0.051420105027301 -0.813931206013522 -0.469923400893744 0.341596237054555
-0.253693680725043 -0.028853922923884 -0.012443097238651 -0.863950323522005 -0.231494791488328 -0.447213595499956
-0.253604212463099 0.067630924266875 0.050416323971519 -0.684167492362352 0.497076779480031 0.533694217409531
-0.253331564925734 0.081925837292188 0.029961917551819 -0.794419404600739 0.577179482515134 0.189107521154951
-0.253075022642471 -0.047415476594057 0.051420105027301 -0.813931206013522 -0.469923400893744 0.341596237054555
-0.253047979125741 -0.054810292362397 0.011022652348394 -0.893362280688324 -0.397750513735098 -0.209041537180588
-0.252882418148996 0.068624388911106 0.050416323971519 -0.684167492362352 0.497076779480031 0.533694217409531
-0.252821042490221 0.082628511142424 0.006780256942826 -0.794419404600739 0.577179482515134 -0.189107521154951
-0.252747746098653 0.069454177136586 -0.012727186216702 -0.815982573819860 0.313226363305076 -0.485861795733101
-0.252570960095523 -0.033043973355961 -0.012443097238651 -0.863950323522005 -0.231494791488328 -0.447213595499956
-0.252350362683580 -0.048670624461066 0.051420105027301 -0.813931206013522 -0.469923400893744 0.341596237054555
-0.252260148927375 -0.056579787959521 0.011022652348394 -0.893362280688324 -0.397750513735098 -0.209041537180588
-0.252160623834893 0.069617853555336 0.050416323971519 -0.684167492362352 0.497076779480031 0.533694217409531
-0.251793698932865 0.070122882356658 -0.013674149476873 -0.707393026562616 0.513951117812166 -0.485231238143432
-0.251766469831725 -0.037572982440217 -0.010795381165953 -0.813082330964551 -0.362007577262947 -0.455903100535041
-0.251625702724690 -0.049925772328076 0.051420105027301 -0.813931206013522 -0.469923400893744 0.341596237054555
-0.251496810423613 0.084451160217411 0.006780256942826 -0.794419404600739 0.577179482515134 -0.189107521154951
-0.251472318729009 -0.058349283556644 0.011022652348394 -0.893362280688324 -0.397750513735098 -0.209041537180588
-0.251438829520790 0.070611318199567 0.050416323971519 -0.684167492362352 0.497076779480031 0.533694217409531
-0.250963776632739 -0.061816395692652 0.029564192982547 -0.770557942409053 -0.623985518414450 0.129932791085920
-0.250901042765799 -0.051180920195086 0.051420105027301 -0.813931206013522 -0.469923400893744 0.341596237054555
-0.250717035206687 0.071604782843797 0.050416323971519 -0.684167492362352 0.497076779480031 0.533694217409531
-0.250684488530642 -0.060118779153767 0.011022652348394 -0.893362280688324 -0.397750513735098 -0.209041537180588
-0.250674921870717 -0.040024639301122 -0.010795381165953 -0.813082330964551 -0.362007577262947 -0.455903100535041
-0.250558297539490 -0.030447328697567 0.072234357485865 -0.468016953306270 -0.577952804848111 0.668528747912996
-0.250432999800792 -0.051567354850046 0.051874647392183 -0.747434242556813 -0.543042764104999 0.382683432365090
-0.250297941124684 -0.051753247170044 0.051874647392183 -0.747434242556813 -0.543042764104999 0.382683432365090
-0.250172578357005 0.086273809292398 0.006780256942826 -0.794419404600739 0.577179482515134 -0.189107521154951
-0.250162882448576 -0.051939139490042 0.051874647392183 -0.747434242556813 -0.543042764104999 0.382683432365090
-0.250085125249590 0.072474532284110 -0.013674149476873 -0.707393026562616 0.513951117812166 -0.485231238143432
-0.250027823772468 -0.052125031810040 0.051874647392183 -0.747434242556813 -0.543042764104999 0.382683432365090
-0.249995240892583 0.072598247488027 0.050416323971519 -0.684167492362352 0.497076779480031 0.533694217409531
-0.249892765096360 -0.052310924130038 0.051874647392183 -0.747434242556813 -0.543042764104999 0.382683432365090
-0.249757706420252 -0.052496816450035 0.051874647392183 -0.747434242556813 -0.543042764104999 0.382683432365090
-0.249622647744144 -0.052682708770033 0.051874647392183 -0.747434242556813 -0.543042764104999 0.382683432365090
-0.249583373909709 -0.042476296162027 -0.010795381165953 -0.813082330964551 -0.362007577262947 -0.455903100535041
-0.249487589068036 -0.052868601090031 0.051874647392183 -0.747434242556813 -0.543042764104999 0.382683432365090
-0.249485320779900 -0.063642136621385 0.029564192982547 -0.770557942409053 -0.623985518414450 0.129932791085920
-0.249456961825973 -0.061985313706512 0.010056749823019 -0.824719682582333 -0.535579224128408 -0.181637936134797
-0.249352530391928 -0.053054493410029 0.051874647392183 -0.747434242556813 -0.543042764104999 0.382683432365090
-0.249284644809574 -0.062250658642735 0.010056749823019 -0.824719682582333 -0.535579224128408 -0.181637936134797
-0.249273446578480 0.073591712132258 0.050416323971519 -0.684167492362352 0.497076779480031 0.533694217409531
-0.249217471715820 -0.053240385730027 0.051874647392183 -0.747434242556813 -0.543042764104999 0.382683432365090
-0.249112327793174 -0.062516003578958 0.010056749823019 -0.824719682582333 -0.535579224128408 -0.181637936134797
-0.249019650533458 0.017847161541399 0.073768437967343 -0.634280002638974 0.206090065784063 0.745128017885131
-0.248940010776774 -0.062781348515181 0.010056749823019 -0.824719682582333 -0.535579224128408 -0.181637936134797
-0.248854692131868 0.018354851298292 0.073768437967343 -0.634280002638974 0.206090065784063 0.745128017885131
-0.248848346290398 0.088096458367385 0.026382396428372 -0.697976234919663 0.697976234919663 0.160182243006966
-0.248848346290398 0.088096458367385 0.006780256942826 -0.794419404600739 0.577179482515134 -0.189107521154951
-0.248767693760375 -0.063046693451403 0.010056749823019 -0.824719682582333 -0.535579224128408 -0.181637936134797
-0.248689733730278 0.018862541055184 0.073768437967343 -0.634280002638974 0.206090065784063 0.745128017885131
-0.248595376743975 -0.063312038387626 0.010056749823019 -0.824719682582333 -0.535579224128408 -0.181637936134797
-0.248551652264377 0.074585176776488 0.050416323971519 -0.684167492362352 0.497076779480031 0.533694217409531
-0.248525772815652 0.012796118533497 -0.033598256470877 -0.737589531251171 -0.116822705096454 -0.665067018399368
-0.248524775328688 0.019370230812077 0.073768437967343 -0.634280002638974 0.206090065784063 0.745128017885131
-0.248491825948700 -0.044927953022932 -0.010795381165953 -0.813082330964551 -0.362007577262947 -0.455903100535041
-0.248453842377770 0.088490962280013 0.026382396428372 -0.697976234919663 0.697976234919663 0.160182243006966
-0.248423059727576 -0.063577383323849 0.010056749823019 -0.824719682582333 -0.535579224128408 -0.181637936134797
-0.248376551566315 0.074826182211562 -0.013674149476873 -0.707393026562616 0.513951117812166 -0.485231238143432
-0.248359816927097 0.019877920568970 0.073768437967343 -0.634280002638974 0.206090065784063 0.745128017885131
-0.248306637331878 0.011412551540901 -0.033598256470877 -0.737589531251171 -0.116822705096454 -0.665067018399368
-0.248250742711176 -0.063842728260072 0.010056749823019 -0.824719682582333 -0.535579224128408 -0.181637936134797
-0.248194858525507 0.020385610325863 0.073768437967343 -0.634280002638974 0.206090065784063 0.745128017885131
-0.248087501848104 0.010028984548306 -0.033598256470877 -0.737589531251171 -0.116822705096454 -0.665067018399368
-0.248078425694776 -0.064108073196295 0.010056749823019 -0.824719682582333 -0.535579224128408 -0.181637936134797
-0.248059338465141 0.088885466192641 0.026382396428372 -0.697976234919663 0.697976234919663 0.160182243006966
-0.248029900123917 0.020893300082756 0.073768437967343 -0.634280002638974 0.206090065784063 0.745128017885131
-0.248006864927061 -0.065467877550119 0.029564192982547 -0.770557942409053 -0.623985518414450 0.129932791085920
-0.247906108678377 -0.064373418132518 0.010056749823019 -0.824719682582333 -0.535579224128408 -0.181637936134797
-0.247868366364331 0.008645417555710 -0.033598256470877 -0.737589531251171 -0.116822705096454 -0.665067018399368
-0.247864941722327 0.021400989839648 0.073768437967343 -0.634280002638974 0.206090065784063 0.745128017885131
-0.247829857950274 0.075578641420718 0.050416323971519 -0.684167492362352 0.497076779480031 0.533694217409531
-0.247826944092368 -0.032659135108058 0.072234357485865 -0.468016953306270 -0.577952804848111 0.668528747912996
-0.247699983320737 0.021908679596541 0.073768437967343 -0.634280002638974 0.206090065784063 0.745128017885131
-0.247664834552513 0.089279970105269 0.026382396428372 -0.697976234919663 0.697976234919663 0.160182243006966
-0.247649230880557 0.007261850563114 -0.033598256470877 -0.737589531251171 -0.116822705096454 -0.665067018399368
-0.247535024919147 0.022416369353434 0.073768437967343 -0.634280002638974 0.206090065784063 0.745128017885131
-0.247517256943570 -0.027602609247982 0.076874477460705 -0.797102746488269 -0.000000000000000 0.603843697939175
-0.247517256943570 -0.023434890455683 0.076874477460705 -0.797102746488269 -0.000000000000000 0.603843697939175
-0.247517256943570 -0.019267171663384 0.076874477460705 -0.797102746488269 -0.000000000000000 0.603843697939175
-0.247517256943570 -0.015099452871085 0.076874477460705 -0.797102746488269 -0.000000000000000 0.603843697939175
-0.247517256943570 -0.010931734078786 0.076874477460705 -0.797102746488269 -0.000000000000000 0.603843697939175
-0.247517256943570 -0.006764015286487 0.076874477460705 -0.797102746488269 -0.000000000000000 0.603843697939175
-0.247517256943570 -0.002596296494188 0.076874477460705 -0.797102746488269 -0.000000000000000 0.603843697939175
-0.247517256943570 0.001571422298111 0.076874477460705 -0.797102746488269 -0.000000000000000 0.603843697939175
-0.247517256943570 0.005739141090410 0.076874477460705 -0.797102746488269 -0.000000000000000 0.603843697939175
-0.247517256943570 0.009906859882709 0.076874477460705 -0.797102746488269 -0.000000000000000 0.603843697939175
-0.247517256943570 0.015685673507894 -0.034942944300320 -0.707106781186548 -0.000000000000000 -0.707106781186547
-0.247517256943570 0.017864802442395 -0.034942944300320 -0.707106781186548 -0.000000000000000 -0.707106781186547
-0.247517256943570 0.020043931376896 -0.034942944300320 -0.707106781186548 -0.000000000000000 -0.707106781186547
-0.247517256943570 0.022223060311397 -0.034942944300320 -0.707106781186548 -0.000000000000000 -0.707106781186547
-0.247517256943570 0.024402189245898 -0.034942944300320 -0.707106781186548 -0.000000000000000 -0.707106781186547
-0.247517256943570 0.026581318180399 -0.034942944300320 -0.707106781186548 -0.000000000000000 -0.707106781186547
-0.247517256943570 0.028760447114900 -0.034942944300320 -0.707106781186548 -0.000000000000000 -0.707106781186547
-0.247517256943570 0.030939576049402 -0.034942944300320 -0.707106781186548 -0.000000000000000 -0.707106781186547
-0.247517256943570 0.033118704983903 -0.034942944300320 -0.707106781186548 -0.000000000000000 -0.707106781186547
-0.247517256943570 0.035297833918404 -0.034942944300320 -0.707106781186548 -0.000000000000000 -0.707106781186547
-0.247430095396783 0.005878283570518 -0.033598256470877 -0.737589531251171 -0.116822705096454 -0.665067018399368
-0.247400277987692 -0.047379609883836 -0.010795381165953 -0.813082330964551 -0.362007577262947 -0.455903100535041
-0.247307397552876 0.089637407104906 0.005927990008672 -0.697976234919663 0.697976234919663 -0.160182243006966
-0.247270330639885 0.089674474017897 0.026382396428372 -0.697976234919663 0.697976234919663 0.160182243006966
-0.247210959913009 0.004494716577922 -0.033598256470877 -0.737589531251171 -0.116822705096454 -0.665067018399368
-0.247113219285897 0.035617553277876 -0.035245972543575 -0.649570475488790 0.249346743761001 -0.718250930211060
-0.246991824429235 0.003111149585326 -0.033598256470877 -0.737589531251171 -0.116822705096454 -0.665067018399368
-0.246875826727257 0.090068977930525 0.026382396428372 -0.697976234919663 0.697976234919663 0.160182243006966
-0.246848387700209 0.028697256393837 0.072480567933510 -0.622624823274509 0.239003276975366 0.745128017885130
-0.246772688945462 0.001727582592730 -0.033598256470877 -0.737589531251171 -0.116822705096454 -0.665067018399368
-0.246667977883041 0.077177832139015 -0.013674149476873 -0.707393026562616 0.513951117812166 -0.485231238143432
-0.246606446533738 -0.066113917507355 0.009602207458137 -0.794137869963043 -0.576974935627742 -0.190905649858569
-0.246602450390892 -0.002632249693242 -0.032897503658350 -0.722939622729218 -0.193711088086754 -0.663200057479175
-0.246553553461688 0.000344015600134 -0.033598256470877 -0.737589531251171 -0.116822705096454 -0.665067018399368
-0.246528409074222 -0.067293618478852 0.029564192982547 -0.770557942409053 -0.623985518414450 0.129932791085920
-0.246481322814629 0.090463481843154 0.026382396428372 -0.697976234919663 0.697976234919663 0.160182243006966
-0.246308730026684 -0.049831266744741 -0.010795381165953 -0.813082330964551 -0.362007577262947 -0.455903100535041
-0.246086818902001 0.090857985755782 0.026382396428372 -0.697976234919663 0.697976234919663 0.160182243006966
-0.245976437773041 0.090968366884741 0.005927990008672 -0.697976234919663 0.697976234919663 -0.160182243006966
-0.245957577384292 -0.005038948518302 -0.032897503658350 -0.722939622729218 -0.193711088086754 -0.663200057479175
-0.245904304400092 0.038766884227032 -0.035245972543575 -0.649570475488790 0.249346743761001 -0.718250930211060
-0.245782724990547 0.031473402665430 0.072480567933510 -0.622624823274509 0.239003276975366 0.745128017885130
-0.245755681401861 -0.067284895253438 0.009602207458137 -0.794137869963043 -0.576974935627742 -0.190905649858569
-0.245692314989372 0.091252489668410 0.026382396428372 -0.697976234919663 0.697976234919663 0.160182243006966
-0.245312704377692 -0.007445647343362 -0.032897503658350 -0.722939622729218 -0.193711088086754 -0.663200057479175
-0.245297811076744 0.091646993581038 0.026382396428372 -0.697976234919663 0.697976234919663 0.160182243006966
-0.245217182065675 -0.052282923605646 -0.010795381165953 -0.813082330964551 -0.362007577262947 -0.455903100535041
-0.245135415671290 -0.052770277493365 0.056495828101819 -0.465330441930881 -0.640472407318526 0.610952269228966
-0.245095590645246 -0.034870941518550 0.072234357485865 -0.468016953306270 -0.577952804848111 0.668528747912996
-0.245049953221384 -0.069119359407585 0.029564192982547 -0.770557942409053 -0.623985518414450 0.129932791085920
-0.244959404199766 0.079529482066467 -0.013674149476873 -0.707393026562616 0.513951117812166 -0.485231238143432
-0.244904916269984 -0.068455872999520 0.009602207458137 -0.794137869963043 -0.576974935627742 -0.190905649858569
-0.244811587160748 0.085856794665172 0.039696699866380 -0.490980095332466 0.756043046732809 0.432824973256275
-0.244717062280885 0.034249548937024 0.072480567933510 -0.622624823274509 0.239003276975366 0.745128017885130
-0.244695389514287 0.041916215176188 -0.035245972543575 -0.649570475488790 0.249346743761001 -0.718250930211060
-0.244667831371092 -0.009852346168423 -0.032897503658350 -0.722939622729218 -0.193711088086754 -0.663200057479175
-0.244645477993206 0.092299326664576 0.005927990008672 -0.697976234919663 0.697976234919663 -0.160182243006966
-0.244125634104667 -0.054734580466551 -0.010795381165953 -0.813082330964551 -0.362007577262947 -0.455903100535041
-0.244054151138107 -0.069626850745603 0.009602207458137 -0.794137869963043 -0.576974935627742 -0.190905649858569
-0.244022958364493 -0.012259044993483 -0.032897503658350 -0.722939622729218 -0.193711088086754 -0.663200057479175
-0.243651399571222 0.037025695208617 0.072480567933510 -0.622624823274509 0.239003276975366 0.745128017885130
-0.243571497368545 -0.070945100336318 0.029564192982547 -0.770557942409053 -0.623985518414450 0.129932791085920
-0.243486474628482 0.045065546125344 -0.035245972543575 -0.649570475488790 0.249346743761001 -0.718250930211060
-0.243378085357893 -0.014665743818543 -0.032897503658350 -0.722939622729218 -0.193711088086754 -0.663200057479175
-0.243314518213371 0.093630286444411 0.005927990008672 -0.697976234919663 0.697976234919663 -0.160182243006966
-0.243282213221705 -0.054116707885993 0.056495828101819 -0.465330441930881 -0.640472407318526 0.610952269228966
-0.243250830516491 0.081881131993919 -0.013674149476873 -0.707393026562616 0.513951117812166 -0.485231238143432
-0.243203386006230 -0.070797828491686 0.009602207458137 -0.794137869963043 -0.576974935627742 -0.190905649858569
-0.243034086143659 -0.057186237327456 -0.010795381165953 -0.813082330964551 -0.362007577262947 -0.455903100535041
-0.242733212351293 -0.017072442643603 -0.032897503658350 -0.722939622729218 -0.193711088086754 -0.663200057479175
-0.242728988173941 -0.066616601954643 0.042234561403639 -0.552410739492525 -0.682170451438744 0.479046814076852
-0.242585736861560 0.039801841480210 0.072480567933510 -0.622624823274509 0.239003276975366 0.745128017885130
-0.242492973311508 0.087362520104562 0.039696699866380 -0.490980095332466 0.756043046732809 0.432824973256275
-0.242364237198124 -0.037082747929041 0.072234357485865 -0.468016953306270 -0.577952804848111 0.668528747912996
-0.242352620874353 -0.071968806237768 0.009602207458137 -0.794137869963043 -0.576974935627742 -0.190905649858569
-0.242277559742677 0.048214877074500 -0.035245972543575 -0.649570475488790 0.249346743761001 -0.718250930211060
-0.242093041515706 -0.072770841265051 0.029564192982547 -0.770557942409053 -0.623985518414450 0.129932791085920
-0.242088339344693 -0.019479141468663 -0.032897503658350 -0.722939622729218 -0.193711088086754 -0.663200057479175
-0.241983558433537 0.094961246224246 0.005927990008672 -0.697976234919663 0.697976234919663 -0.160182243006966
-0.241942538182650 -0.059637894188361 -0.010795381165953 -0.813082330964551 -0.362007577262947 -0.455903100535041
-0.241854187217783 -0.067325001801164 0.042234561403639 -0.552410739492525 -0.682170451438744 0.479046814076852
-0.241542256833216 0.084232781921371 -0.013674149476873 -0.707393026562616 0.513951117812166 -0.485231238143432
-0.241520074151898 0.042577987751804 0.072480567933510 -0.622624823274509 0.239003276975366 0.745128017885130
-0.241501855742476 -0.073139783983851 0.009602207458137 -0.794137869963043 -0.576974935627742 -0.190905649858569
-0.241443466338093 -0.021885840293723 -0.032897503658350 -0.722939622729218 -0.193711088086754 -0.663200057479175
-0.241429010772119 -0.055463138278620 0.056495828101819 -0.465330441930881 -0.640472407318526 0.610952269228966
-0.241068644856872 0.051364208023656 -0.035245972543575 -0.649570475488790 0.249346743761001 -0.718250930211060
-0.240979386261624 -0.068033401647685 0.042234561403639 -0.552410739492525 -0.682170451438744 0.479046814076852
-0.240975093620444 -0.024170372551281 0.084507001337685 -0.422702377826377 -0.521993964438398 0.740840739207700
-0.240926977882280 -0.060956558310772 -0.011382498387259 -0.764322257843706 -0.441281661313687 -0.470193557540862
-0.240798593331494 -0.024292539118783 -0.032897503658350 -0.722939622729218 -0.193711088086754 -0.663200057479175
-0.240701379100969 -0.028899538257015 -0.031249787585652 -0.694765448275168 -0.309329507133349 -0.649319819426178
-0.240678686081029 -0.061386612325641 -0.011382498387259 -0.764322257843706 -0.441281661313687 -0.470193557540862
-0.240652598653702 0.096292206004081 0.005927990008672 -0.697976234919663 0.697976234919663 -0.160182243006966
-0.240651090610599 -0.074310761729933 0.009602207458137 -0.794137869963043 -0.576974935627742 -0.190905649858569
-0.240614585662868 -0.074596582193784 0.029564192982547 -0.770557942409053 -0.623985518414450 0.129932791085920
-0.240454411442235 0.045354134023397 0.072480567933510 -0.622624823274509 0.239003276975366 0.745128017885130
-0.240430394279779 -0.061816666340509 -0.011382498387259 -0.764322257843706 -0.441281661313687 -0.470193557540862
-0.240182102478529 -0.062246720355378 -0.011382498387259 -0.764322257843706 -0.441281661313687 -0.470193557540862
-0.240174359462269 0.088868245543950 0.039696699866380 -0.490980095332466 0.756043046732809 0.432824973256275
-0.240104585305466 -0.068741801494206 0.042234561403639 -0.552410739492525 -0.682170451438744 0.479046814076852
-0.240100947088953 0.058377282826728 0.068143476201925 -0.561441210371541 0.407910916309729 0.719994758072513
-0.239933810677278 -0.062676774370247 -0.011382498387259 -0.764322257843706 -0.441281661313687 -0.470193557540862
-0.239918347137119 -0.030658256842965 -0.031249787585652 -0.694765448275168 -0.309329507133349 -0.649319819426178
-0.239859729971067 0.054513538972812 -0.035245972543575 -0.649570475488790 0.249346743761001 -0.718250930211060
-0.239833683149942 0.086584431848823 -0.013674149476873 -0.707393026562616 0.513951117812166 -0.485231238143432
-0.239800325478723 -0.075481739476016 0.009602207458137 -0.794137869963043 -0.576974935627742 -0.190905649858569
-0.239732466715095 -0.025176631978451 0.084507001337685 -0.422702377826377 -0.521993964438398 0.740840739207700
-0.239685518876028 -0.063106828385115 -0.011382498387259 -0.764322257843706 -0.441281661313687 -0.470193557540862
-0.239632883751002 -0.039294554339533 0.072234357485865 -0.468016953306270 -0.577952804848111 0.668528747912996
-0.239606380827365 0.059057994887653 0.068143476201925 -0.561441210371541 0.407910916309729 0.719994758072513
-0.239575808322533 -0.056809568671248 0.056495828101819 -0.465330441930881 -0.640472407318526 0.610952269228966
-0.239525472584267 0.097419332073517 0.021969547635974 -0.531276323574743 0.818093796776967 0.220154508661422
-0.239437227074777 -0.063536882399984 -0.011382498387259 -0.764322257843706 -0.441281661313687 -0.470193557540862
-0.239388748732573 0.048130280294990 0.072480567933510 -0.622624823274509 0.239003276975366 0.745128017885130
-0.239321638873867 0.097623165783915 0.005927990008672 -0.697976234919663 0.697976234919663 -0.160182243006966
-0.239229784349307 -0.069450201340727 0.042234561403639 -0.552410739492525 -0.682170451438744 0.479046814076852
-0.239188935273527 -0.063966936414852 -0.011382498387259 -0.764322257843706 -0.441281661313687 -0.470193557540862
-0.239136129810029 -0.076422323122517 0.029564192982547 -0.770557942409053 -0.623985518414450 0.129932791085920
-0.239135315173268 -0.032416975428915 -0.031249787585652 -0.694765448275168 -0.309329507133349 -0.649319819426178
