ply
format ascii 1.0
element vertex 434
property double x
property double y
property double z
property double nx
property double ny
property double nz
end_header
0.006598576743406 0.224097725398287 0.082844750266747 -0.055101467178725 0.816106897209217 0.575268077197315
0.006615450763935 -0.157975644572183 0.158293614866674 0.038318604103729 -0.730732698574373 0.681587417587616
0.006639672693700 0.187370322192845 -0.130799631290325 0.036637314923198 0.804254746262329 -0.593154288756083
0.006665506376411 0.224033633053369 0.082936410418709 -0.269589133711249 0.789528429518805 0.551331622498100
0.006834100863802 0.112694510116888 -0.197019278584892 0.007246487713389 0.564950628844308 -0.825092888942961
0.006844630611413 0.045286383567052 0.234525209241455 -0.059576780459999 0.370946227874359 0.926741335678842
0.007002359584532 0.043368700497781 0.235302938967604 0.287382001474989 0.346282568056239 0.893028537219615
0.007095824183143 0.092820344624698 0.203688214689532 0.083248584072466 0.596985511577561 0.797921031316012
0.007264455136582 -0.172387179353076 0.145849636555211 0.038318604103729 -0.730732698574373 0.681587417587617
0.007374746539134 0.129427355251432 -0.186622838815029 0.005524630274220 0.564969175879042 -0.825093515164730
0.007438725325524 0.246911584109462 0.043406440824626 -0.075674565111896 0.927407489717070 0.366317769445886
0.007453360679138 0.138254046925621 0.166555023028982 0.082890361089463 0.589061715492250 0.803825530435421
0.007491999566815 -0.040915952564987 0.235801516339136 0.024727837040253 -0.256749393957630 0.966161623527710
0.007492254809127 -0.172857405717594 0.145201713550640 -0.151687106804026 -0.801788731037993 0.578036203373032
0.007533857746111 0.184882380424516 0.128508827509271 -0.042352521098215 0.734565748978878 0.677214459668225
0.007578688829024 0.025469077343935 -0.238656461527286 0.098594977112821 0.163234353670809 -0.981648397477323
0.007608439438052 0.218453292092645 -0.079155590558399 0.048245288051209 0.881023549513266 -0.470605883286537
0.007615776275896 -0.250949643971743 0.021776024920418 -0.198049565076300 -0.949089413331086 0.244960517789997
0.007645302606489 0.160319544331463 -0.159804160838540 0.023682795608450 0.705939962719554 -0.707875620591417
0.007701781005565 0.040325961853048 -0.223405854334411 0.102165943875881 -0.067205110640663 -0.992494631227659
0.007732749588059 0.224210626103774 0.082793218715026 -0.055101467178725 0.816106897209217 0.575268077197315
0.007753722860868 -0.040083138006378 0.236535980104939 0.022648882658485 -0.246779256756231 0.968807012025184
0.007851343062079 0.096032207218952 -0.207417889631293 0.003406266718412 0.529584201966328 -0.848250535145561
0.007885887571438 0.129197845025498 -0.184648613609512 0.007246487713389 0.564950628844308 -0.825092888942961
0.007903326030622 -0.037750630587382 -0.231146113700764 0.319663037056861 -0.256607496444658 -0.912122873031912
0.007932444701454 0.199408933878406 0.113934707825733 -0.042352521098215 0.734565748978879 0.677214459668223
0.007955102770338 -0.079270102904462 0.220760446836053 0.004770283733123 -0.472607673463983 0.881260024837203
0.008033071700928 0.211831915188167 0.099387755098875 -0.049348358068334 0.780304351361978 0.623449964954303
0.008391529210943 0.169182309502547 0.143834598593769 0.085402973192666 0.647678543193324 0.757112169270067
0.008490124770071 0.069173445171271 -0.223477004355808 0.022941422915984 0.037572570474766 -0.999030526591910
0.008645986752379 -0.116333322563821 -0.180991679269993 0.477963317033580 -0.283039634303564 -0.831528491985429
0.008717015636436 0.040767146791355 -0.222475797380964 0.130376736714209 -0.104024615392336 -0.985992284917195
0.008734732894548 -0.208575101098255 -0.096112839017422 -0.055747509235977 -0.739397398988627 -0.670957302354507
0.008750846750266 0.096162540603151 -0.209451235406550 0.005524630274220 0.564969175879042 -0.825093515164729
0.008775754669915 0.174751011599418 -0.145374335268678 0.027022413455229 0.732432972264317 -0.680302675513710
0.008813091334357 0.046365818257420 -0.233400740806517 0.133830877536677 0.271736507483015 -0.953020758807853
0.008866922432712 0.224323526809261 0.082741687163306 -0.055101467178725 0.816106897209217 0.575268077197315
0.008884310985910 0.076145168164745 0.215977588412964 0.083248584072466 0.596985511577559 0.797921031316013
0.008899831307048 -0.007307444076795 -0.238349476709148 0.165920106059989 -0.103833437653117 -0.980657501694745
0.008925653097836 -0.060554814823598 0.229175979153756 -0.004538139730469 -0.392814584741796 0.919606495900239
0.008953489249039 -0.114342817458832 0.199948037331452 0.013817208006475 -0.546861443811137 0.837109100437753
0.009011561496146 -0.147229833394009 0.172480879658039 0.139822240452498 -0.642537120479494 0.753389533960198
0.009014424061516 0.242007456372872 -0.038868141760091 0.061947699384893 0.947298646956312 -0.314305195654891
0.009213147309350 -0.032486661860328 -0.238437046808655 0.282058464480792 -0.219709783019853 -0.933900762319052
0.009244990775072 0.107318960345035 0.191289001069734 0.082426867190873 0.622920673098382 0.777930361016818
0.009247896679825 -0.170078660981402 -0.142132550232094 -0.045342757391323 -0.979608422414675 -0.195732912629388
0.009361092092450 0.236776966934625 0.064045251835265 -0.063301246721311 0.863941519559282 0.499597841213437
0.009438174581855 0.045938211918863 -0.233434885722218 0.133830877536677 0.271736507483015 -0.953020758807853
0.009449774296228 -0.194900834526433 0.114848944543657 0.046280673945525 -0.784451988576413 0.618460327618239
0.009484920361129 -0.184570569727931 0.129362152979594 0.049778805545012 -0.806977668817644 0.588480341683690
0.009607541204772 0.160164642020837 -0.159892990618661 0.023682795608450 0.705939962719554 -0.707875620591417
0.009619724877975 -0.218761877098849 0.079313337654583 -0.177665191086272 -0.889853745931786 0.420232543632031
0.009649475792633 0.023428484501447 -0.238787797411700 0.098594977112821 0.163234353670809 -0.981648397477323
0.009694385062196 0.237001749790922 -0.039974410392023 0.053224457116849 0.910008000560950 -0.411160061386899
0.009729939234111 -0.251413788257625 0.021687009050388 -0.198049565076300 -0.949089413331086 0.244960517789997
0.009787433022116 -0.095644526904124 0.210421254170427 0.009405953890200 -0.511064675291465 0.859490794424609
0.009797101231779 0.129243653661716 -0.186732405936838 0.005524630274220 0.564969175879042 -0.825093515164730
0.009811911568507 -0.195241375597371 0.114435156008814 -0.149194567274296 -0.802253042711904 0.578040687629624
0.009899182754394 -0.039490870936198 0.236636688457369 0.022648882658485 -0.246779256756231 0.968807012025184
0.009946696011545 -0.225664903930056 0.062994076519578 -0.170191303498142 -0.875025420374941 0.453172631467590
0.010001095277365 0.224436427514748 0.082690155611585 -0.055101467178725 0.816106897209217 0.575268077197315
0.010063257829352 0.045510605580307 -0.233469030637919 0.133830877536677 0.271736507483015 -0.953020758807853
0.010072667056977 -0.172120902750152 0.145977236122868 0.038318604103729 -0.730732698574373 0.681587417587617
0.010109319414993 0.187096422630043 -0.130956700851396 0.036637314923198 0.804254746262329 -0.593154288756083
0.010141178944705 0.207868326377128 -0.095810972813899 0.044789704128772 0.859431008838351 -0.509285993770840
0.010289380150419 0.197467235476417 -0.114424126010463 0.044789704128772 0.859431008838351 -0.509285993770840
0.010581071066714 0.063424908118126 0.225317557889393 0.308882148900566 0.379155530630306 0.872257359775783
0.010610462988765 -0.040066135272693 0.235947534578757 0.024727837040253 -0.256749393957630 0.966161623527710
0.010659395332848 -0.130725184687954 0.187539208551366 0.024173851740344 -0.627770781169908 0.778022796067930
0.010688341076849 0.045082999241750 -0.233503175553621 0.133830877536677 0.271736507483015 -0.953020758807853
0.011055473331083 0.212132778745180 0.099250431192154 -0.049348358068334 0.780304351361978 0.623449964954303
0.011135268122018 0.224549328220236 0.082638624059865 -0.055101467178725 0.816106897209217 0.575268077197315
0.011168738988365 0.095979177427952 -0.209560600684136 0.005524630274220 0.564969175879042 -0.825093515164729
0.011313424324346 0.044655392903193 -0.233537320469322 0.133830877536677 0.271736507483015 -0.953020758807853
0.011360623301202 -0.208511545572691 0.097932560495763 -0.149194567274296 -0.802253042711903 0.578040687629624
0.011538837660630 -0.082966178489933 -0.189965407439745 0.467070608034524 -0.275067991989874 -0.840346742061227
0.011569779803056 0.160009739710211 -0.159981820398782 0.023682795608450 0.705939962719554 -0.707875620591417
0.011720262756241 0.021387891658958 -0.238919133296114 0.098594977112821 0.163234353670809 -0.981648397477323
0.011844102192326 -0.251877932543507 0.021597993180357 -0.198049565076300 -0.949089413331086 0.244960517789997
0.011938507571844 0.044227786564637 -0.233571465385023 0.133830877536677 0.271736507483015 -0.953020758807853
0.011939768825033 0.174501239169139 -0.145517568962045 0.027022413455229 0.732432972264317 -0.680302675513710
0.012025769924621 0.039909341636682 0.235027783093772 0.287382001474989 0.346282568056239 0.893028537219615
0.012044642647920 -0.038898603866019 0.236737396809798 0.022648882658485 -0.246779256756231 0.968807012025184
0.012099277295231 -0.160786575922488 -0.156454952463754 0.072199360731459 -0.741372757778985 -0.667198386039079
0.012219455924425 0.129059952071999 -0.186841973058647 0.005524630274220 0.564969175879042 -0.825093515164730
0.012269440966671 0.224662228925723 0.082587092508144 -0.055101467178725 0.816106897209217 0.575268077197315
0.012448086644200 0.123395786916010 0.178702247869629 0.085402973192666 0.647678543193325 0.757112169270066
0.012531785745522 -0.243662783408051 -0.001306743990134 -0.365960293690619 -0.854920639385471 -0.367673447225405
0.012563590819341 0.043800180226080 -0.233605610300724 0.133830877536677 0.271736507483015 -0.953020758807853
0.012566844640645 -0.222914521042641 -0.079541030678823 -0.055747509235977 -0.739397398988626 -0.670957302354508
0.012573622658845 0.237096756787693 0.063899289351843 -0.063301246721311 0.863941519559282 0.499597841213437
0.012594378932960 -0.184275728708481 0.129503440596291 0.049778805545012 -0.806977668817644 0.588480341683690
0.012624031882900 -0.207548613412047 0.099450289461610 -0.013674126376971 -0.853359961177675 0.521142777870579
0.012764423419450 -0.078814079783303 0.220978972806652 0.004770283733123 -0.472607673463983 0.881260024837203
0.012798263996358 0.128810054030279 -0.184870994984580 0.007246487713389 0.564950628844308 -0.825092888942961
0.012848754481151 -0.239421760103206 0.044115214762038 -0.017720712314535 -0.888711508721579 0.458124252382342
0.012880878977372 -0.171854626147228 0.146104835690525 0.038318604103729 -0.730732698574373 0.681587417587617
0.012901611276284 0.075828035937297 0.215795726787274 0.083248584072466 0.596985511577559 0.797921031316013
0.013159455608407 -0.239328522721096 0.044355941144590 -0.154805023522667 -0.822273769244158 0.547632406916493
0.013188674066838 0.043372573887523 -0.233639755216425 0.133830877536677 0.271736507483015 -0.953020758807853
0.013234336635191 -0.146079078406995 0.172678605944575 0.139822240452498 -0.642537120479494 0.753389533960198
0.013330659054198 -0.028325241303571 -0.238172485259267 0.282058464480792 -0.219709783019853 -0.933900762319052
0.013360540284038 0.241782560216561 -0.038689372597373 0.061947699384893 0.947298646956312 -0.314305195654891
0.013403613811325 0.224775129631210 0.082535560956424 -0.055101467178725 0.816106897209217 0.575268077197315
0.013496781418285 0.247514630470498 0.043131190863968 -0.075674565111896 0.927407489717070 0.366317769445886
0.013532018401339 0.159854837399585 -0.160070650178903 0.023682795608450 0.705939962719554 -0.707875620591417
0.013578966136286 0.186822523067240 -0.131113770412468 0.036637314923198 0.804254746262329 -0.593154288756083
0.013586631226464 0.095795814252753 -0.209669965961722 0.005524630274220 0.564969175879042 -0.825093515164729
0.013629167873941 -0.002499765090736 -0.238044575220393 0.165920106059989 -0.103833437653117 -0.980657501694745
0.013632329244179 0.092304342269909 0.203392309641165 0.083248584072466 0.596985511577561 0.797921031316012
0.013645651051138 -0.180148037327443 -0.124089631209924 -0.057602315169759 -0.790651708521372 -0.609550530390483
0.013681806468581 -0.194499550299223 0.115041239673373 0.046280673945525 -0.784451988576413 0.618460327618239
0.013714426453446 -0.207593475807685 0.099405438837109 -0.013674126376971 -0.853359961177675 0.521142777870579
0.013728926410715 -0.039216317980399 0.236093552818379 0.024727837040253 -0.256749393957630 0.966161623527710
0.013785343606147 -0.056609259472767 0.230808644014292 0.276919523018607 -0.329648277035060 0.902578301987680
0.013791049719849 0.019347298816469 -0.239050469180528 0.098594977112821 0.163234353670809 -0.981648397477323
0.013795996102905 0.199992618360895 0.113668295255784 -0.042352521098215 0.734565748978879 0.677214459668223
0.013813757314335 0.042944967548966 -0.233673900132127 0.133830877536677 0.271736507483015 -0.953020758807853
0.013823913559743 0.095560722777012 -0.207688265580747 0.003406266718412 0.529584201966328 -0.848250535145561
0.013833679205993 0.152426468658645 0.156023754509764 0.080990268196881 0.587917438545074 0.804856298920494
0.013862283339953 0.185512340591113 0.128221293212946 -0.042352521098215 0.734565748978878 0.677214459668225
0.013869706833505 0.217959017447426 -0.079439035704420 0.048245288051209 0.881023549513266 -0.470605883286537
0.013958265150542 -0.252342076829390 0.021508977310327 -0.198049565076300 -0.949089413331086 0.244960517789997
0.013994684548190 -0.060074165744051 0.229406305866925 -0.004538139730469 -0.392814584741796 0.919606495900239
0.014070171145785 -0.113857650130893 0.200180529186188 0.013817208006475 -0.546861443811137 0.837109100437753
0.014077874961239 0.212433642302193 0.099113107285433 -0.049348358068334 0.780304351361978 0.623449964954303
0.014087892599018 -0.157267102452217 0.158633147770360 0.038318604103729 -0.730732698574373 0.681587417587616
0.014190102541446 -0.038306336795840 0.236838105162227 0.022648882658485 -0.246779256756231 0.968807012025184
0.014340122675370 -0.252244491247771 0.021835556449948 0.078900347174303 -0.960308930651527 0.267547178880092
0.014394333179258 0.197143183799045 -0.114609955641619 0.044789704128772 0.859431008838351 -0.509285993770840
0.014438840561833 0.042517361210410 -0.233708045047828 0.133830877536677 0.271736507483015 -0.953020758807853
0.014482559011075 0.226230007363164 -0.060863331419555 0.051831763481905 0.902169736295361 -0.428256039311900
0.014537786655978 0.224888030336697 0.082484029404703 -0.055101467178725 0.816106897209217 0.575268077197315
0.014641810617070 0.128876250482283 -0.186951540180456 0.005524630274220 0.564969175879042 -0.825093515164730
0.014676656528731 0.112075406000410 -0.197374308037433 0.007246487713389 0.564950628844308 -0.825092888942961
0.014804821023993 -0.207638338203323 0.099360588212609 -0.013674126376971 -0.853359961177675 0.521142777870579
0.014847598812587 -0.130328056327790 0.187729512192410 0.024173851740344 -0.627770781169908 0.778022796067930
0.014894877007036 -0.130696467792144 0.187410285255349 0.147134612748611 -0.665631946086170 0.731632092024984
0.014987276274446 0.244907654325510 -0.019544851593804 0.059334640399842 0.941640858593444 -0.331348598723494
0.015080473013594 0.246864163947852 0.025434166239305 0.054564402907177 0.995777795228171 -0.073819431492699
0.015089800407135 0.246235550953164 -0.017162658747991 0.051631867181474 0.995249327570784 -0.082540452271940
0.015103782980152 0.174251466738860 -0.145660802655412 0.027022413455229 0.732432972264317 -0.680302675513710
0.015173523552798 0.168646927824129 0.143527580340893 0.085402973192666 0.647678543193324 0.757112169270067
0.015298939305513 0.183100995507940 0.131148568670969 0.085556560877162 0.651536528787161 0.753777305672471
0.015482372121132 -0.011011746655987 -0.210707504644048 0.219778924330204 -0.104912765483933 -0.969892022886451
0.015666828489869 -0.095087038546130 0.210688402213750 0.009405953890200 -0.511064675291465 0.859490794424609
0.015671959500631 0.225000931042184 0.082432497852983 -0.055101467178725 0.816106897209217 0.575268077197315
0.015677879469689 -0.011339099352094 -0.209829099195422 0.235505532603895 -0.113934253628691 -0.965171554679804
0.015689090897767 -0.171588349544305 0.146232435258182 0.038318604103729 -0.730732698574373 0.681587417587617
0.015703837504792 -0.183980887689032 0.129644728212988 0.049778805545012 -0.806977668817644 0.588480341683690
0.015722227009097 -0.218264633261651 0.082946270233309 -0.011380170814820 -0.831644590336553 0.555191648961124
0.015786153225239 0.237416546640760 0.063753326868420 -0.063301246721311 0.863941519559282 0.499597841213437
0.015861836683458 0.017306705973981 -0.239181805064942 0.098594977112821 0.163234353670809 -0.981648397477323
0.015895215594539 -0.207683200598961 0.099315737588108 -0.013674126376971 -0.853359961177675 0.521142777870579
0.015903065261946 0.247040682827952 0.044453947326134 0.088987017467547 0.942475363336312 0.322213438928791
0.016004523464562 0.095612451077554 -0.209779331239308 0.005524630274220 0.564969175879042 -0.825093515164729
0.016011883875244 0.043279353639734 -0.233244479906944 0.168704218095941 0.234197291811108 -0.957439562220499
0.016130828194302 -0.029386838182125 -0.230615684617751 0.319663037056861 -0.256607496444658 -0.912122873031912
0.016210705625438 0.137562727853457 0.166158581420553 0.082890361089463 0.589061715492250 0.803825530435421
0.016316087716197 0.106782716931522 0.190969163623045 0.082426867190873 0.622920673098382 0.777930361016818
0.016479716186815 -0.042972366937229 -0.200700527726553 0.449423466081158 -0.262189218286205 -0.853976206899271
0.016806132345284 0.225113831747672 0.082380966301262 -0.055101467178725 0.816106897209217 0.575268077197315
0.016807571125943 0.143915649112763 -0.167507368256232 0.175080398376281 0.629797612175959 -0.756770653369872
0.016847389832665 -0.038366500688105 0.236239571058000 0.024727837040253 -0.256749393957630 0.966161623527710
0.016878834860363 -0.170369150171468 -0.142446458202677 -0.045342757391323 -0.979608422414675 -0.195732912629388
0.016886573622527 0.160675630175721 -0.159139871312842 0.159381150116578 0.548917857213330 -0.820540574877222
0.016914660499105 -0.252000371784840 0.021952538331137 0.078900347174303 -0.960308930651527 0.267547178880092
0.016918911566658 0.075510903709850 0.215613865161584 0.083248584072466 0.596985511577559 0.797921031316013
0.016985610165086 -0.207728062994598 0.099270886963608 -0.013674126376971 -0.853359961177675 0.521142777870579
0.017032885045226 0.236645027277978 0.065044999870443 0.090625128713395 0.861506422537528 0.499593604815225
0.017048612857579 0.186548623504438 -0.131270839973540 0.036637314923198 0.804254746262329 -0.593154288756083
0.017049180264711 0.036449982775583 0.234752627219940 0.287382001474989 0.346282568056239 0.893028537219615
0.017064165309716 0.128692548892566 -0.187061107302265 0.005524630274220 0.564969175879042 -0.825093515164730
0.017073699720528 0.207321061896867 -0.096124805340046 0.044789704128772 0.859431008838351 -0.509285993770840
0.017100276591394 0.212734505859207 0.098975783378713 -0.049348358068334 0.780304351361978 0.623449964954303
0.017135942392225 -0.130085751596440 0.187515220403896 0.147134612748611 -0.665631946086170 0.731632092024984
0.017231219948157 -0.076608246797662 0.221983100249359 0.291783636918556 -0.343638774368730 0.892622373670376
0.017369647016791 0.224237590289670 0.083603239449057 0.090219707998631 0.812976753015668 0.575264463829240
0.017448170799046 -0.024163820746814 -0.237907923709879 0.282058464480792 -0.219709783019853 -0.933900762319052
0.017457111774236 -0.144928323419981 0.172876332231111 0.139822240452498 -0.642537120479494 0.753389533960198
0.017464046843770 -0.052869617770106 0.231045810914549 0.276919523018607 -0.329648277035060 0.902578301987680
0.017493769327564 0.058664495895391 0.224938916806597 0.308882148900566 0.379155530630306 0.872257359775783
0.017573744068562 -0.078358056662143 0.221197498777250 0.004770283733123 -0.472607673463983 0.881260024837203
0.017706656506561 0.241557664060250 -0.038510603434654 0.061947699384893 0.947298646956312 -0.314305195654891
0.017710640421278 0.128422263035061 -0.185093376359648 0.007246487713389 0.564950628844308 -0.825092888942961
0.017764914471015 0.211821170261180 0.100093112442269 0.089947090221342 0.796655485477390 0.597703570693281
0.017777771407236 -0.239624555965746 0.043912472109718 -0.017720712314535 -0.888711508721579 0.458124252382342
0.017913838640934 -0.194098266072013 0.115233534803089 0.046280673945525 -0.784451988576413 0.618460327618239
0.017932488300137 -0.043748533778665 -0.201579760904442 0.452769458556443 -0.266598717401392 -0.850837787876419
0.017932623647066 0.015266113131492 -0.239313140949356 0.098594977112821 0.163234353670809 -0.981648397477323
0.018018120540860 -0.194555849312797 -0.109607128054404 -0.058063483285829 -0.689193283524643 -0.722247360572011
0.018076004735632 -0.207772925390236 0.099226036339107 -0.013674126376971 -0.853359961177675 0.521142777870579
0.018267797135271 0.174001694308581 -0.145804036348779 0.027022413455229 0.732432972264317 -0.680302675513710
0.018358504440834 0.002307913895324 -0.237739673731638 0.165920106059989 -0.103833437653117 -0.980657501694745
0.018382552642597 0.048428623494249 -0.222855049497449 0.102165943875881 -0.067205110640663 -0.992494631227659
0.018422415702661 0.095429087902355 -0.209888696516894 0.005524630274220 0.564969175879042 -0.825093515164729
0.018497302818162 -0.171322072941381 0.146360034825839 0.038318604103729 -0.730732698574373 0.681587417587617
0.018499286208096 0.196819132121673 -0.114795785272775 0.044789704128772 0.859431008838351 -0.509285993770840
0.018505171119912 0.236306211990390 -0.040373271258834 0.053224457116849 0.910008000560950 -0.411160061386899
0.018525779789414 0.245738885309389 0.003613285359411 0.049590637988455 0.998339537335460 -0.029307623866810
0.018699225206393 -0.126118235036605 -0.169619525459352 0.506239538804914 -0.306050754923052 -0.806259551733571
0.018761093342944 0.040587991903397 -0.233418387903724 0.168704218095941 0.234197291811108 -0.957439562220499
0.018813296076624 -0.183686046669582 0.129786015829686 0.049778805545012 -0.806977668817644 0.588480341683690
0.019008945742978 -0.239942266644819 -0.020179284899182 -0.372409452040048 -0.877939024074988 -0.300889132468238
0.019147994742968 -0.218405580540362 0.082805359936791 -0.011380170814820 -0.831644590336553 0.555191648961124
0.019166399306178 -0.207817787785874 0.099181185714607 -0.013674126376971 -0.853359961177675 0.521142777870579
0.019186853042531 -0.113372482802953 0.200413021040923 0.013817208006475 -0.546861443811137 0.837109100437753
0.019377007777414 -0.129475035400736 0.187620155552443 0.147134612748611 -0.665631946086170 0.731632092024984
0.019486520002361 0.128508847302850 -0.187170674424074 0.005524630274220 0.564969175879042 -0.825093515164730
0.019489198322839 -0.251756252321909 0.022069520212326 0.078900347174303 -0.960308930651527 0.267547178880092
0.019659547504356 0.200576302843384 0.113401882685836 -0.042352521098215 0.734565748978879 0.677214459668223
0.019749440642441 0.049190376309890 -0.221905662738026 0.130376736714209 -0.104024615392336 -0.985992284917195
0.019796484057407 0.095089238335072 -0.207958641530201 0.003406266718412 0.529584201966328 -0.848250535145561
0.019924592675947 -0.159732047559069 -0.156779917028223 0.072199360731459 -0.741372757778985 -0.667198386039079
0.020003410610674 0.013225520289004 -0.239444476833770 0.098594977112821 0.163234353670809 -0.981648397477323
0.020130974228957 0.217464742802206 -0.079722480850441 0.048245288051209 0.881023549513266 -0.470605883286537
0.020168834305215 0.091788339915119 0.203096404592798 0.083248584072466 0.596985511577561 0.797921031316012
0.020176489788332 -0.069638546457612 0.225124374323016 0.261010929099889 -0.316241338506937 0.912066176716226
0.020185049149073 -0.232142747969663 -0.057405342172551 -0.372373175232757 -0.922013330178391 0.105969983204807
0.020190708933795 0.186142300757711 0.127933758916620 -0.042352521098215 0.734565748978878 0.677214459668225
0.020256793876725 -0.207862650181512 0.099136335090106 -0.013674126376971 -0.853359961177675 0.521142777870579
0.020326371231093 0.122773862300244 0.178345600982651 0.085402973192666 0.647678543193325 0.757112169270066
0.020343314484015 0.182702784316142 0.130920211763534 0.085556560877162 0.651536528787161 0.753777305672471
0.020375318172031 -0.170360372826269 -0.141035631690932 -0.047482925419432 -0.984334377419625 -0.169797541865396
0.020466524802454 -0.221143188428467 0.078856638075882 -0.177665191086272 -0.889853745931786 0.420232543632031
0.020518259578873 0.186274723941635 -0.131427909534612 0.036637314923198 0.804254746262329 -0.593154288756083
0.020840307940759 0.095245724727156 -0.209998061794480 0.005524630274220 0.564969175879042 -0.825093515164729
0.020936211857033 0.075193771482402 0.215432003535895 0.083248584072466 0.596985511577559 0.797921031316013
0.021142750081394 -0.049129976067445 0.231282977814805 0.276919523018607 -0.329648277035060 0.902578301987680
0.021184483253841 -0.072589496883743 0.222237968104564 0.291783636918556 -0.343638774368730 0.892622373670376
0.021248212196929 0.246618728223864 0.044211974597962 0.088987017467547 0.942475363336312 0.322213438928791
0.021305514738557 -0.171055796338457 0.146487634393496 0.038318604103729 -0.730732698574373 0.681587417587617
0.021347188447271 -0.207907512577150 0.099091484465606 -0.013674126376971 -0.853359961177675 0.521142777870579
0.021380494720439 0.151854148671193 0.155682399522713 0.080990268196881 0.587917438545074 0.804856298920494
0.021431811290389 0.173751921878301 -0.145947270042146 0.027022413455229 0.732432972264317 -0.680302675513710
0.021510302810644 0.037896630167059 -0.233592295900505 0.168704218095941 0.234197291811108 -0.957439562220499
0.021546223957623 -0.094529550188137 0.210955550257073 0.009405953890200 -0.511064675291465 0.859490794424609
0.021560334434100 -0.156558560332251 0.158972680674047 0.038318604103729 -0.730732698574373 0.681587417587616
0.021565682543894 -0.020002400190057 -0.237643362160491 0.282058464480792 -0.219709783019853 -0.933900762319052
0.021618073162603 -0.128864319205032 0.187725090700991 0.147134612748611 -0.665631946086170 0.731632092024984
0.021679886913281 -0.143777568432967 0.173074058517647 0.139822240452498 -0.642537120479494 0.753389533960198
0.021922754648455 -0.183391205650133 0.129927303446383 0.049778805545012 -0.806977668817644 0.588480341683690
0.021937171338029 0.130335037797592 -0.183882210618885 0.202966065638836 0.784002958986814 -0.586637994421613
0.021955517894653 0.168111546145711 0.143220562088017 0.085402973192666 0.647678543193324 0.757112169270067
0.022052772729084 0.241332767903939 -0.038331834271935 0.061947699384893 0.947298646956312 -0.314305195654891
0.022063736146574 -0.251512132858979 0.022186502093515 0.078900347174303 -0.960308930651527 0.267547178880092
0.022072590604800 0.032990623914485 0.234477471346107 0.287382001474989 0.346282568056239 0.893028537219615
0.022074197574283 0.011184927446515 -0.239575812718185 0.098594977112821 0.163234353670809 -0.981648397477323
0.022145870813287 -0.193696981844803 0.115425829932805 0.046280673945525 -0.784451988576413 0.618460327618239
0.022260391384479 -0.223283528165469 -0.079939786574116 -0.055747509235977 -0.739397398988626 -0.670957302354508
0.022437583017818 -0.207952374972788 0.099046633841105 -0.013674126376971 -0.853359961177675 0.521142777870579
0.022519212193659 0.111456301883932 -0.197729337489974 0.007246487713389 0.564950628844308 -0.825092888942961
0.022573762476840 -0.218546527819074 0.082664449640273 -0.011380170814820 -0.831644590336553 0.555191648961124
0.022604239236934 0.196495080444301 -0.114981614903931 0.044789704128772 0.859431008838351 -0.509285993770840
0.022623016846198 0.128034472039842 -0.185315757734716 0.007246487713389 0.564950628844308 -0.825092888942961
0.022706788333322 -0.239827351828287 0.043709729457398 -0.017720712314535 -0.888711508721579 0.458124252382342
0.022744674030553 0.236194129353328 0.064786429398886 0.090625128713395 0.861506422537528 0.499593604815225
0.023024257927213 -0.208078677599252 0.098864491014020 0.045187420178802 -0.777272766236722 0.627538958092880
0.023040980844173 0.225554391605519 -0.061250767855819 0.051831763481905 0.902169736295361 -0.428256039311900
0.023087841007727 0.007115592881384 -0.237434772242884 0.165920106059989 -0.103833437653117 -0.980657501694745
0.023102236571036 -0.066681599748075 0.225312361668266 0.261010929099889 -0.316241338506937 0.912066176716226
0.023205407558385 0.211391688876544 0.099846823430767 0.089947090221342 0.796655485477390 0.597703570693281
0.023258200178858 0.095062361551957 -0.210107427072066 0.005524630274220 0.564969175879042 -0.825093515164729
0.023387184657321 0.106246473518009 0.190649326176356 0.082426867190873 0.622920673098382 0.777930361016818
0.023406526945320 -0.235371260847187 -0.038959508460351 -0.378529003530520 -0.903979427949811 -0.198839099097045
0.023531764837024 0.223751142673392 0.083324282765843 0.090219707998631 0.812976753015668 0.575264463829240
0.023688794453045 0.245818802018841 -0.016808735053387 0.051631867181474 0.995249327570784 -0.082540452271940
0.023859138547793 -0.128253603009328 0.187830025849538 0.147134612748611 -0.665631946086170 0.731632092024984
0.023987906300166 0.186000824378833 -0.131584979095684 0.036637314923198 0.804254746262329 -0.593154288756083
0.024006220496350 0.206773797416607 -0.096438637866193 0.044789704128772 0.859431008838351 -0.509285993770840
0.024113726658952 -0.170789519735534 0.146615233961153 0.038318604103729 -0.730732698574373 0.681587417587617
0.024144984537891 0.009144334604027 -0.239707148602599 0.098594977112821 0.163234353670809 -0.981648397477323
0.024259512278344 0.035205268430721 -0.233766203897285 0.168704218095941 0.234197291811108 -0.957439562220499
0.024303534939277 -0.112887315475013 0.200645512895659 0.013817208006475 -0.546861443811137 0.837109100437753
0.024358330357981 -0.021023045776868 -0.230085255534737 0.319663037056861 -0.256607496444658 -0.912122873031912
0.024372333019757 -0.166381849685710 -0.149503393726031 0.550907265310319 -0.336912026219353 -0.763538781999366
0.024406467588414 0.053904083672656 0.224560275723801 0.308882148900566 0.379155530630306 0.872257359775783
0.024497431666771 0.244156907170719 -0.019975372639082 0.059334640399842 0.941640858593444 -0.331348598723494
0.024509773040902 -0.170659639361533 -0.142760366173261 -0.045342757391323 -0.979608422414675 -0.195732912629388
0.024528915741842 -0.113136764346971 0.200451358108933 0.124522750047022 -0.593560917199674 0.795097177893249
0.024595825445508 0.173502149448022 -0.146090503735513 0.027022413455229 0.732432972264317 -0.680302675513710
0.024630671245901 -0.093082333214252 -0.179717951057707 0.477963317033580 -0.283039634303564 -0.831528491985429
0.024638273970308 -0.251268013396048 0.022303483974704 0.078900347174303 -0.960308930651527 0.267547178880092
0.024799548613490 -0.207910343304496 0.098945156693981 0.045187420178802 -0.777272766236722 0.627538958092880
0.024821453319017 -0.045390334364783 0.231520144715061 0.276919523018607 -0.329648277035060 0.902578301987680
0.024942158951043 -0.113024150800623 0.200470707717307 0.124522750047022 -0.593560917199674 0.795097177893249
0.024953512147407 0.074876639254954 0.215250141910205 0.083248584072466 0.596985511577559 0.797921031316013
0.024968050571738 0.136871408781293 0.165762139812123 0.082890361089463 0.589061715492250 0.803825530435421
0.024998837039548 -0.228920664857840 0.062360476755287 -0.170191303498142 -0.875025420374941 0.453172631467590
0.025032213220287 -0.183096364630684 0.130068591063080 0.049778805545012 -0.806977668817644 0.588480341683690
0.025137746559525 -0.068570746969823 0.222492835959768 0.291783636918556 -0.343638774368730 0.892622373670376
0.025171426922148 0.158792132359757 -0.158790633418934 0.159381150116578 0.548917857213330 -0.820540574877222
0.025355402160245 -0.112911537254275 0.200490057325680 0.124522750047022 -0.593560917199674 0.795097177893249
0.025387689662518 0.182304573124345 0.130691854856098 0.085556560877162 0.651536528787161 0.753777305672471
0.025468561410019 -0.209212112718209 -0.096801205509863 -0.055747509235977 -0.739397398988627 -0.670957302354507
0.025523098905806 0.201159987325873 0.113135470115887 -0.042352521098215 0.734565748978879 0.677214459668223
0.025676092416956 0.094878998376758 -0.210216792349652 0.005524630274220 0.564969175879042 -0.825093515164729
0.025683194288742 -0.015840979633300 -0.237378800611102 0.282058464480792 -0.219709783019853 -0.933900762319052
0.025742105787429 0.075504978052172 0.214697758347242 0.321064645365389 0.397866282033240 0.859429994308695
0.025768645369446 -0.112798923707927 0.200509406934054 0.124522750047022 -0.593560917199674 0.795097177893249
0.025769054555072 0.094617753893132 -0.208229017479655 0.003406266718412 0.529584201966328 -0.848250535145561
0.025902662052326 -0.142626813445953 0.173271784804183 0.139822240452498 -0.642537120479494 0.753389533960198
0.025999530210712 -0.218687475097785 0.082523539343754 -0.011380170814820 -0.831644590336553 0.555191648961124
0.026027983353740 -0.063724653038537 0.225500349013516 0.261010929099889 -0.316241338506937 0.912066176716226
0.026100203932982 -0.127642886813624 0.187934960998085 0.147134612748611 -0.665631946086170 0.731632092024984
0.026181888578648 -0.112686310161579 0.200528756542428 0.124522750047022 -0.593560917199674 0.795097177893249
0.026377902985640 -0.193295697617593 0.115618125062522 0.046280673945525 -0.784451988576413 0.618460327618239
0.026392241624409 0.216970468156987 -0.080005925996462 0.048245288051209 0.881023549513266 -0.470605883286537
0.026398888951606 0.241107871747628 -0.038153065109216 0.061947699384893 0.947298646956312 -0.314305195654891
0.026574839299766 -0.207742009009741 0.099025822373943 0.045187420178802 -0.777272766236722 0.627538958092880
0.026593359131911 0.246196773619777 0.043970001869791 0.088987017467547 0.942475363336312 0.322213438928791
0.026595131787849 -0.112573696615231 0.200548106150802 0.124522750047022 -0.593560917199674 0.795097177893249
0.026609599436468 0.246267572396827 0.025908394762421 0.054564402907177 0.995777795228171 -0.073819431492699
0.026705339366250 0.091272337560330 0.202800499544431 0.083248584072466 0.596985511577561 0.797921031316012
0.026709192265772 0.196171028766929 -0.115167444535087 0.044789704128772 0.859431008838351 -0.509285993770840
0.026907079841065 -0.090274049630927 0.213559205052406 0.349087280539699 -0.397225280693601 0.848734438410088
0.026921938579348 -0.170523243132610 0.146742833528810 0.038318604103729 -0.730732698574373 0.681587417587617
0.026935699346510 0.175067568129035 -0.144161326341038 0.182824851396855 0.670935981309057 -0.718623672513347
0.027008374997050 -0.112461083068883 0.200567455759176 0.124522750047022 -0.593560917199674 0.795097177893249
0.027008721746043 0.032513906694383 -0.233940111894066 0.168704218095941 0.234197291811108 -0.957439562220499
0.027096000944890 0.029531265053386 0.234202315472275 0.287382001474989 0.346282568056239 0.893028537219615
0.027158004438341 -0.060246863601682 -0.188720805246613 0.467070608034524 -0.275067991989874 -0.840346742061227
0.027212811794043 -0.251023893933117 0.022420465855893 0.078900347174303 -0.960308930651527 0.267547178880092
0.027315957177627 0.235610674189857 -0.040772132125645 0.053224457116849 0.910008000560950 -0.411160061386899
0.027421618206252 -0.112348469522535 0.200586805367550 0.124522750047022 -0.593560917199674 0.795097177893249
0.027425619425376 -0.093972061830144 0.211222698300396 0.009405953890200 -0.511064675291465 0.859490794424609
0.027457553021459 0.185726924816030 -0.131742048656756 0.036637314923198 0.804254746262329 -0.593154288756083
0.027535393271117 0.127646681044624 -0.185538139109785 0.007246487713389 0.564950628844308 -0.825092888942961
0.027548182838149 0.006423402774332 -0.209749810802548 0.219778924330204 -0.104912765483933 -0.969892022886451
0.027635805259407 -0.240030147690828 0.043506986805077 -0.017720712314535 -0.888711508721579 0.458124252382342
0.027817177574620 0.011923271867443 -0.237129870754129 0.165920106059989 -0.103833437653117 -0.980657501694745
0.027834861415453 -0.112235855976187 0.200606154975924 0.124522750047022 -0.593560917199674 0.795097177893249
0.027850610104736 0.006367101259206 -0.208859123814507 0.235505532603895 -0.113934253628691 -0.965171554679804
0.028141671792118 -0.182801523611234 0.130209878679777 0.049778805545012 -0.806977668817644 0.588480341683690
0.028204655817985 0.122151937684478 0.177988954095673 0.085402973192666 0.647678543193325 0.757112169270066
0.028248104624655 -0.112123242429839 0.200625504584298 0.124522750047022 -0.593560917199674 0.795097177893249
0.028336673887588 0.128880160005622 -0.183612447388127 0.202966065638836 0.784002958986814 -0.586637994421613
0.028341269318171 -0.127032170617920 0.188039896146633 0.147134612748611 -0.665631946086170 0.731632092024984
0.028350129986042 -0.207573674714985 0.099106488053904 0.045187420178802 -0.777272766236722 0.627538958092880
0.028376659564486 -0.112270350820132 0.200477974899462 0.422516027218030 -0.464971439409031 0.777998565087229
0.028456463015881 0.235743231428677 0.064527858927329 0.090625128713395 0.861506422537528 0.499593604815225
0.028500156556641 -0.041650692662122 0.231757311615317 0.276919523018607 -0.329648277035060 0.902578301987680
0.028645900645755 0.210962207491907 0.099600534419265 0.089947090221342 0.796655485477390 0.597703570693281
0.028737512236508 0.167576164467294 0.142913543835142 0.085402973192666 0.647678543193324 0.757112169270067
0.028771075785959 -0.088379176215256 0.213679377328283 0.349087280539699 -0.397225280693601 0.848734438410088
0.028927310234884 0.151281828683740 0.155341044535662 0.080990268196881 0.587917438545074 0.804856298920494
0.028953730136444 -0.060767706329000 0.225688336358766 0.261010929099889 -0.316241338506937 0.912066176716226
0.029032776269182 -0.155850018212285 0.159312213577733 0.038318604103729 -0.730732698574373 0.681587417587616
0.029063324279629 0.056531285135450 -0.222304244660486 0.102165943875881 -0.067205110640663 -0.992494631227659
0.029091009865209 -0.064551997055903 0.222747703814972 0.291783636918556 -0.343638774368730 0.892622373670376
0.029425297944583 -0.218828422376497 0.082382629047236 -0.011380170814820 -0.831644590336553 0.555191648961124
0.029693882657258 0.223264695057115 0.083045326082628 0.090219707998631 0.812976753015668 0.575264463829240
0.029730150499743 -0.170256966529686 0.146870433096467 0.038318604103729 -0.730732698574373 0.681587417587617
0.029757931213743 0.029822544958046 -0.234114019890846 0.168704218095941 0.234197291811108 -0.957439562220499
0.029787349617777 -0.250779774470187 0.022537447737082 0.078900347174303 -0.960308930651527 0.267547178880092
0.029800706033590 -0.011679559076543 -0.237114239061714 0.282058464480792 -0.219709783019853 -0.933900762319052
0.029801504140732 0.198485765298086 0.116055987294874 0.088306773447724 0.729978333407271 0.677741504202889
0.030125420672318 -0.207405340420230 0.099187153733865 0.045187420178802 -0.777272766236722 0.627538958092880
0.030125437191371 -0.141476058458940 0.173469511090718 0.139822240452498 -0.642537120479494 0.753389533960198
0.030361767858588 0.110837197767454 -0.198084366942516 0.007246487713389 0.564950628844308 -0.825092888942961
0.030432064841020 0.181906361932547 0.130463497948662 0.085556560877162 0.651536528787161 0.753777305672471
0.030458281598445 0.105710230104496 0.190329488729667 0.082426867190873 0.622920673098382 0.777930361016818
0.030499549289502 -0.022579409523187 -0.199583367299541 0.449423466081158 -0.262189218286205 -0.853976206899271
0.030582334703360 -0.126421454422216 0.188144831295180 0.147134612748611 -0.665631946086170 0.731632092024984
0.030596622915434 0.140780814011831 -0.166926107583075 0.175080398376281 0.629797612175959 -0.756770653369872
0.030609935157993 -0.192894413390383 0.115810420192238 0.046280673945525 -0.784451988576413 0.618460327618239
0.030635071730853 -0.086484302799585 0.213799549604160 0.349087280539699 -0.397225280693601 0.848734438410088
0.030635661668933 -0.109973927887782 0.200623613319356 0.422516027218030 -0.464971439409031 0.777998565087229
0.030745005174129 0.240882975591317 -0.037974295946497 0.061947699384893 0.947298646956312 -0.314305195654891
0.030781865648446 0.057613605828426 -0.221335528095089 0.130376736714209 -0.104024615392336 -0.985992284917195
0.030814145294611 0.195846977089557 -0.115353274166244 0.044789704128772 0.859431008838351 -0.509285993770840
0.030875477863546 -0.180856928703197 -0.124798336584515 -0.057602315169759 -0.790651708521372 -0.609550530390483
0.030927199742752 0.185453025253228 -0.131899118217828 0.036637314923198 0.804254746262329 -0.593154288756083
0.030938741272173 0.206226532936346 -0.096752470392339 0.044789704128772 0.859431008838351 -0.509285993770840
0.031024222479232 0.245133150191553 0.004127705417148 0.049590637988455 0.998339537335460 -0.029307623866810
0.031251130363950 -0.182506682591785 0.130351166296474 0.049778805545012 -0.806977668817644 0.588480341683690
0.031319165849264 0.049143671449922 0.224181634641004 0.308882148900566 0.379155530630306 0.872257359775783
0.031599402677270 0.224878775847875 -0.061638204292083 0.051831763481905 0.902169736295361 -0.428256039311900
0.031741625052736 0.094146269451193 -0.208499393429109 0.003406266718412 0.529584201966328 -0.848250535145561
0.031791878512431 0.071338817323304 0.214366383765447 0.321064645365389 0.397866282033240 0.859429994308695
0.031813126327756 -0.023690950921148 -0.200478019640062 0.452769458556443 -0.266598717401392 -0.850837787876419
0.031879476919148 -0.057810759619462 0.225876323704016 0.261010929099889 -0.316241338506937 0.912066176716226
0.031900711358594 -0.207237006125474 0.099267819413827 0.045187420178802 -0.777272766236722 0.627538958092880
0.031938506066894 0.245774819015689 0.043728029141619 0.088987017467547 0.942475363336312 0.322213438928791
0.031953938128313 -0.223652535288297 -0.080338542469410 -0.055747509235977 -0.739397398988626 -0.670957302354508
0.032119411284979 0.026071906192287 0.233927159598443 0.287382001474989 0.346282568056239 0.893028537219615
0.032140711221440 -0.170950128551598 -0.143074274143844 -0.045342757391323 -0.979608422414675 -0.195732912629388
0.032178859794265 -0.037911050959461 0.231994478515573 0.276919523018607 -0.329648277035060 0.902578301987680
0.032287788498955 0.245402053084519 -0.016454811358783 0.051631867181474 0.995249327570784 -0.082540452271940
0.032361887441512 -0.250535655007256 0.022654429618271 0.078900347174303 -0.960308930651527 0.267547178880092
0.032499067675747 -0.084589429383914 0.213919721880037 0.349087280539699 -0.397225280693601 0.848734438410088
0.032507140681443 0.027131183221708 -0.234287927887626 0.168704218095941 0.234197291811108 -0.957439562220499
0.032538362420138 -0.169990689926763 0.146998032664124 0.038318604103729 -0.730732698574373 0.681587417587617
0.032546514141513 0.016730950853503 -0.236824969265374 0.165920106059989 -0.103833437653117 -0.980657501694745
0.032564822185493 -0.240232943553368 0.043304244152757 -0.017720712314535 -0.888711508721579 0.458124252382342
0.032585832521661 -0.012659253371611 -0.229554826451724 0.319663037056861 -0.256607496444658 -0.912122873031912
0.032631778093545 -0.169932212580181 0.147045041428120 0.180701385649393 -0.760610563461869 0.623553189370889
0.032653509019862 0.216476193511767 -0.080289371142482 0.048245288051209 0.881023549513266 -0.470605883286537
0.032823400088550 -0.125810738226512 0.188249766443727 0.147134612748611 -0.665631946086170 0.731632092024984
0.032851065678455 -0.218969369655208 0.082241718750717 -0.011380170814820 -0.831644590336553 0.555191648961124
0.032894663773380 -0.107677504955433 0.200769251739249 0.422516027218030 -0.464971439409031 0.777998565087229
0.033044273170894 -0.060533247141983 0.223002571670176 0.291783636918556 -0.343638774368730 0.892622373670376
0.033133247444663 -0.252917023017256 -0.000635709980534 0.268001854074852 -0.962028803466672 -0.051726081553948
0.033241422640871 0.090746931372868 0.202511674225459 0.383154129562438 0.497981794791974 0.777950541522413
0.033241844427286 0.090756335205541 0.202504594496064 0.083248584072466 0.596985511577561 0.797921031316012
0.033359669736064 0.198204877911206 0.115894910518714 0.088306773447724 0.729978333407271 0.677741504202889
0.033456280221770 0.156908634543793 -0.158441395525027 0.159381150116578 0.548917857213330 -0.820540574877222
0.033550513925474 0.173563740799581 -0.143882486894086 0.182824851396855 0.670935981309057 -0.718623672513347
0.033676002044871 -0.207068671830719 0.099348485093788 0.045187420178802 -0.777272766236722 0.627538958092880
0.033725395518038 0.136180089709129 0.165365698203694 0.082890361089463 0.589061715492250 0.803825530435421
0.033918217778438 -0.007518138519786 -0.236849677512326 0.282058464480792 -0.219709783019853 -0.933900762319052
0.034007587059095 0.243406160015927 -0.020405893684360 0.059334640399842 0.941640858593444 -0.331348598723494
0.034084778625357 -0.252477349196985 -0.002263531559894 -0.365960293690619 -0.854920639385471 -0.367673447225405
0.034086393733125 0.210532726107271 0.099354245407763 0.089947090221342 0.796655485477390 0.597703570693281
0.034168252001209 0.235292333504027 0.064269288455772 0.090625128713395 0.861506422537528 0.499593604815225
0.034348212330416 -0.140325303471926 0.173667237377254 0.139822240452498 -0.642537120479494 0.753389533960198
0.034360588935782 -0.182211841572336 0.130492453913171 0.049778805545012 -0.806977668817644 0.588480341683690
0.034363063620641 -0.082694555968242 0.214039894155913 0.349087280539699 -0.397225280693601 0.848734438410088
0.034378044190287 -0.182250640794768 0.130436399795994 0.180701385649393 -0.760610563461869 0.623553189370889
0.034396846464045 0.185179125690425 -0.132056187778900 0.036637314923198 0.804254746262329 -0.593154288756083
0.034524333888644 -0.170942509566593 -0.141617615688375 -0.047482925419432 -0.984334377419625 -0.169797541865396
0.034736176437147 0.127425282213651 -0.183342684157369 0.202966065638836 0.784002958986814 -0.586637994421613
0.034805223701852 -0.054853812909925 0.226064311049266 0.261010929099889 -0.316241338506937 0.912066176716226
0.034841967330347 -0.192493129163173 0.116002715321954 0.046280673945525 -0.784451988576413 0.618460327618239
0.034919098323449 0.195522925412185 -0.115539103797400 0.044789704128772 0.859431008838351 -0.509285993770840
0.034936425265246 -0.250291535544325 0.022771411499460 0.078900347174303 -0.960308930651527 0.267547178880092
0.035015061321051 -0.102541780257777 -0.168324496378224 0.506239538804914 -0.306050754923052 -0.806259551733571
0.035064465473739 -0.125200022030808 0.188354701592274 0.147134612748611 -0.665631946086170 0.731632092024984
0.035091121396652 0.240658079435006 -0.037795526783778 0.061947699384893 0.947298646956312 -0.314305195654891
0.035153665877827 -0.105381082023083 0.200914890159142 0.422516027218030 -0.464971439409031 0.777998565087229
0.035256350149143 0.024439821485370 -0.234461835884407 0.168704218095941 0.234197291811108 -0.957439562220499
0.035427229413611 0.091287251205736 -0.210269550572833 0.146526670284214 0.421554816911952 -0.894886289555132
0.035451292731147 -0.206900337535963 0.099429150773750 0.045187420178802 -0.777272766236722 0.627538958092880
0.035462217027261 -0.125616971169494 0.187857702226415 0.437108070799987 -0.478291505663823 0.761691387670458
