ply
format ascii 1.0
element vertex 426
property double x
property double y
property double z
property double nx
property double ny
property double nz
end_header
-0.113113492768590 0.108234972973219 0.150530518323313 -0.541242684909039 0.547777766096441 0.637962283370144
-0.113080446115472 -0.082819658211621 -0.167515474234600 -0.490499457291784 -0.410079587627594 -0.768924582912816
-0.113025978799128 -0.186476936978061 -0.081019266054280 -0.447466945432329 -0.726668679239594 -0.521273405572974
-0.113009254173802 -0.082913900442846 -0.167510626936636 -0.490499457291784 -0.410079587627594 -0.768924582912816
-0.113002651143159 -0.032438621977118 0.193509788183240 -0.500443565351388 -0.214835609221338 0.838690585918840
-0.112999885841667 -0.139689862725762 -0.127842603602531 -0.473012295020383 -0.547202786062701 -0.690527682055374
-0.112945201779681 -0.186708302585383 0.057247361774407 -0.491287976477884 -0.717549877771360 0.493718844159885
-0.112938062232132 -0.083008142674070 -0.167505779638673 -0.490499457291784 -0.410079587627594 -0.768924582912816
-0.112871163525481 0.088924642121977 -0.172507174069943 -0.506073102073736 0.436424818887802 -0.743924319280002
-0.112866870290461 -0.083102384905295 -0.167500932340709 -0.490499457291784 -0.410079587627594 -0.768924582912816
-0.112847212930781 0.058851953548176 -0.184394430094144 -0.521241649333287 0.185472082817095 -0.833010954007091
-0.112843575679561 0.089738430843010 0.165565519161533 -0.629852513978081 0.443030766509682 0.637973001436060
-0.112795678348791 -0.083196627136519 -0.167496085042746 -0.490499457291784 -0.410079587627594 -0.768924582912816
-0.112770055224597 -0.070433092617843 0.178494303001803 -0.437087918812825 -0.419418122202802 0.795639736310190
-0.112724486407121 -0.083290869367743 -0.167491237744782 -0.490499457291784 -0.410079587627594 -0.768924582912816
-0.112653294465451 -0.083385111598968 -0.167486390446819 -0.490499457291784 -0.410079587627594 -0.768924582912816
-0.112636208946213 0.217324234787921 -0.047489234561914 -0.550945653199144 0.706959105853479 -0.443472332701623
-0.112613407294718 0.173779761937819 0.090264621629712 -0.465264901775961 0.662927840457937 0.586562229879475
-0.112582102523780 -0.083479353830192 -0.167481543148855 -0.490499457291784 -0.410079587627594 -0.768924582912816
-0.112510910582110 -0.083573596061417 -0.167476695850892 -0.490499457291784 -0.410079587627594 -0.768924582912816
-0.112490852616494 0.228133543815977 -0.027272914951567 -0.580786407502701 0.756731917230852 -0.300073248231536
-0.112439718640440 -0.083667838292641 -0.167471848552929 -0.490499457291784 -0.410079587627594 -0.768924582912816
-0.112342246649766 0.126706724342672 0.135324316273684 -0.541242684909038 0.547777766096441 0.637962283370144
-0.112337756056470 -0.052555983618882 -0.180582355233981 -0.523032192251799 -0.303670249862922 -0.796380377217111
-0.112181629802770 -0.034059702519535 0.193584439099726 -0.500443565351388 -0.214835609221338 0.838690585918840
-0.112094888534468 -0.004010425397747 -0.192680572886897 -0.483519211919311 -0.184572811825759 -0.855652995576865
-0.112083046988419 -0.151281510103852 0.104429058603431 -0.455594507211462 -0.654454576817961 0.603425929075615
-0.112058290411633 0.229325433709981 0.015984213069330 -0.569220442213301 0.779719361729835 0.260817570554810
-0.112046213092156 0.011548524514340 -0.192776503388536 -0.510847935967144 0.082760997202432 -0.855678095816510
-0.112044975692966 -0.083275476475605 -0.167932909080209 -0.413141891727175 -0.487913573396936 -0.768930505439291
-0.111894160010863 -0.123473129031316 -0.142507110667841 -0.453714145328761 -0.528208213871783 -0.717732232191764
-0.111879741060570 0.021241107426513 0.190496833928464 -0.614412948394371 0.175383618587306 0.769244639355100
-0.111874422029649 -0.071270876962734 0.178544688258628 -0.437087918812825 -0.419418122202802 0.795639736310190
-0.111726972929518 -0.058147039198414 -0.181210674669642 -0.501475141043668 -0.291491752335966 -0.814589001420558
-0.111666485240907 -0.215126820985386 -0.022637813992167 -0.535256770167941 -0.836914314138585 -0.114344308032036
-0.111653265682041 -0.058292571815950 -0.181203972878464 -0.501475141043668 -0.291491752335966 -0.814589001420558
-0.111648108818787 0.061659067029470 -0.184519736754850 -0.521241649333287 0.185472082817095 -0.833010954007091
-0.111613020218015 0.204726485467553 0.056082400916394 -0.475573136783101 0.675169510046410 0.563893894517375
-0.111602159591498 -0.174790830279340 -0.097571567182851 -0.425030260353058 -0.696484192478451 -0.578151405266693
-0.111579558434564 -0.058438104433487 -0.181197271087286 -0.501475141043668 -0.291491752335966 -0.814589001420558
-0.111560517501603 0.013636208002632 -0.192864547973265 -0.510847935967144 0.082760997202432 -0.855678095816510
-0.111505851187087 -0.058583637051024 -0.181190569296108 -0.501475141043668 -0.291491752335966 -0.814589001420558
-0.111464611065929 0.091847989389790 0.165461980279409 -0.629852513978081 0.443030766509682 0.637973001436060
-0.111432143939610 -0.058729169668560 -0.181183867504930 -0.501475141043668 -0.291491752335966 -0.814589001420558
-0.111369491043014 0.090512946524674 -0.172596942059084 -0.506073102073736 0.436424818887802 -0.743924319280002
-0.111360608462381 -0.035680783061951 0.193659090016212 -0.500443565351388 -0.214835609221338 0.838690585918840
-0.111358436692133 -0.058874702286097 -0.181177165713752 -0.501475141043668 -0.291491752335966 -0.814589001420558
-0.111284729444656 -0.059020234903634 -0.181170463922575 -0.501475141043668 -0.291491752335966 -0.814589001420558
-0.111278842384211 -0.110819076163020 0.147435816877333 -0.431086136595922 -0.612338206265170 0.662726688750918
-0.111211022197178 -0.059165767521171 -0.181163762131397 -0.501475141043668 -0.291491752335966 -0.814589001420558
-0.111147515725724 -0.003442083687313 -0.193338518788285 -0.543529593184392 -0.005365209856573 -0.839372858660562
-0.111137314949701 -0.059311300138707 -0.181157060340219 -0.501475141043668 -0.291491752335966 -0.814589001420558
-0.111074821911050 0.015723891490923 -0.192952592557995 -0.510847935967144 0.082760997202432 -0.855678095816510
-0.111067237000681 -0.001946517710451 -0.193400062222233 -0.543529593184392 -0.005365209856573 -0.839372858660562
-0.111063607702224 -0.059456832756244 -0.181150358549041 -0.501475141043668 -0.291491752335966 -0.814589001420558
-0.110986958275637 -0.000450951733588 -0.193461605656181 -0.543529593184392 -0.005365209856573 -0.839372858660562
-0.110978788834700 -0.072108661307626 0.178595073515453 -0.437087918812825 -0.419418122202802 0.795639736310190
-0.110906679550593 0.001044614243275 -0.193523149090129 -0.543529593184392 -0.005365209856573 -0.839372858660562
-0.110900288847028 0.220317283576141 0.036919480797219 -0.519316094329256 0.725963048483870 0.450875200478597
-0.110826400825549 0.002540180220138 -0.193584692524077 -0.543529593184392 -0.005365209856573 -0.839372858660562
-0.110797019205700 0.068763166503198 0.179977753470727 -0.622950537087875 0.300810546234634 0.722111932885719
-0.110763408281109 -0.055640975911768 -0.180439978782557 -0.523032192251799 -0.303670249862922 -0.796380377217111
-0.110746122100505 0.004035746197001 -0.193646235958025 -0.543529593184392 -0.005365209856573 -0.839372858660562
-0.110728729008127 -0.008478873575748 -0.192488684740619 -0.483519211919311 -0.184572811825759 -0.855652995576865
-0.110665843375462 0.005531312173864 -0.193707779391972 -0.543529593184392 -0.005365209856573 -0.839372858660562
-0.110594305919773 0.146211516118153 0.120059728715714 -0.541242684909039 0.547777766096441 0.637962283370143
-0.110589126320496 0.017811574979215 -0.193040637142725 -0.510847935967144 0.082760997202432 -0.855678095816510
-0.110585564650418 0.007026878150727 -0.193769322825920 -0.543529593184392 -0.005365209856573 -0.839372858660562
-0.110539587121992 -0.037301863604368 0.193733740932698 -0.500443565351388 -0.214835609221338 0.838690585918840
-0.110505285925374 0.008522444127590 -0.193830866259868 -0.543529593184392 -0.005365209856573 -0.839372858660562
-0.110449004706793 0.064466180510764 -0.184645043415557 -0.521241649333287 0.185472082817095 -0.833010954007091
-0.110425007200330 0.010018010104452 -0.193892409693816 -0.543529593184392 -0.005365209856573 -0.839372858660562
-0.110332437729632 0.069840902672269 0.179929584864042 -0.622950537087875 0.300810546234634 0.722111932885719
-0.110266693375828 -0.091136306065247 0.163036592456287 -0.492201510188623 -0.486081223485269 0.722123755005403
-0.110238148565333 0.187510288182457 -0.083552396916537 -0.504333240611565 0.634844666145368 -0.585337707892643
-0.110180597540922 -0.138038062798230 0.118837399475489 -0.441806884389338 -0.630668721798505 0.638015391860749
-0.110176048373597 -0.014486006985953 -0.193830021191177 -0.518721910178864 -0.192462283428151 -0.832998108856204
-0.110103430729943 0.019899258467507 -0.193128681727454 -0.510847935967144 0.082760997202432 -0.855678095816510
-0.110096561452650 -0.125900484989179 0.135537438016224 -0.451134754137947 -0.651965031791302 0.609441573024240
-0.110085646452297 0.093957547936569 0.165358441397285 -0.629852513978081 0.443030766509682 0.637973001436060
-0.110083155639752 -0.072946445652518 0.178645458772278 -0.437087918812825 -0.419418122202802 0.795639736310190
-0.110035816647862 0.111490201120304 0.150346538927132 -0.541242684909039 0.547777766096441 0.637962283370144
-0.110002998047827 0.235549584699869 -0.006983921609923 -0.599181437142082 0.800228110223047 -0.024830968430594
-0.109993150590713 0.093879316755875 0.165504086386478 -0.541242684909039 0.547777766096441 0.637962283370143
-0.109878320385115 -0.015471406927716 -0.193787747035200 -0.518721910178864 -0.192462283428151 -0.832998108856204
-0.109867856253564 0.070918638841341 0.179881416257357 -0.622950537087875 0.300810546234634 0.722111932885719
-0.109867818560546 0.092101250927371 -0.172686710048226 -0.506073102073736 0.436424818887802 -0.743924319280002
-0.109840935786979 -0.123777327901153 0.133169129504814 -0.455594507211462 -0.654454576817960 0.603425929075616
-0.109831026909330 0.030047171942974 0.190125452779069 -0.614412948394371 0.175383618587306 0.769244639355100
-0.109750159933492 -0.052764949582293 0.187197360373600 -0.435722709502778 -0.420863644990415 0.795625233856330
-0.109695375702946 -0.176840881847841 0.073807802489731 -0.484954356877233 -0.706147972945960 0.515920838937623
-0.109617735139390 0.021986941955799 -0.193216726312184 -0.510847935967144 0.082760997202432 -0.855678095816510
-0.109580592396633 -0.016456806869478 -0.193745472879223 -0.518721910178864 -0.192462283428151 -0.832998108856204
-0.109403274777497 0.071996375010412 0.179833247650672 -0.622950537087875 0.300810546234634 0.722111932885719
-0.109362569481786 -0.012947321753750 -0.192296796594340 -0.483519211919311 -0.184572811825759 -0.855652995576865
-0.109282864408151 -0.017442206811241 -0.193703198723246 -0.518721910178864 -0.192462283428151 -0.832998108856204
-0.109249900594800 0.067273293992058 -0.184770350076263 -0.521241649333287 0.185472082817095 -0.833010954007091
-0.109189060505749 -0.058725968204653 -0.180297602331133 -0.523032192251799 -0.303670249862922 -0.796380377217111
-0.109187522444803 -0.073784229997409 0.178695844029104 -0.437087918812825 -0.419418122202802 0.795639736310190
-0.109132039548836 0.024074625444090 -0.193304770896914 -0.510847935967144 0.082760997202432 -0.855678095816510
-0.109101788093843 0.130134125890761 0.135130605959446 -0.541242684909038 0.547777766096441 0.637962283370144
-0.108985136419669 -0.018427606753003 -0.193660924567269 -0.518721910178864 -0.192462283428151 -0.832998108856204
-0.108938693301429 0.073074111179483 0.179785079043987 -0.622950537087875 0.300810546234634 0.722111932885719
-0.108897127969605 -0.216916496339350 -0.022502366122642 -0.535256770167941 -0.836914314138585 -0.114344308032036
-0.108687408431187 -0.019413006694766 -0.193618650411292 -0.518721910178864 -0.192462283428151 -0.832998108856204
-0.108646343958283 0.026162308932382 -0.193392815481643 -0.510847935967144 0.082760997202432 -0.855678095816510
-0.108592625856094 -0.201485084256933 0.038995653632044 -0.506885922258801 -0.746191160456909 0.431584770203742
-0.108474111825361 0.074151847348555 0.179736910437302 -0.622950537087875 0.300810546234634 0.722111932885719
-0.108389680442705 -0.020398406636528 -0.193576376255315 -0.518721910178864 -0.192462283428151 -0.832998108856204
-0.108366146078079 0.093689555330069 -0.172776478037367 -0.506073102073736 0.436424818887802 -0.743924319280002
-0.108291889249855 -0.074622014342300 0.178746229285929 -0.437087918812825 -0.419418122202802 0.795639736310190
-0.108196268523652 -0.153811586018353 0.104619595920131 -0.455594507211462 -0.654454576817961 0.603425929075615
-0.108160648367730 0.028249992420674 -0.193480860066373 -0.510847935967144 0.082760997202432 -0.855678095816510
-0.108091952454223 -0.021383806578291 -0.193534102099337 -0.518721910178864 -0.192462283428151 -0.832998108856204
-0.108075911441469 -0.073746396301573 0.175225403214459 -0.473756553441362 -0.464663727294438 0.748092473300060
-0.108050796482806 0.070080407473352 -0.184895656736969 -0.521241649333287 0.185472082817095 -0.833010954007091
-0.108009530349293 0.075229583517626 0.179688741830617 -0.622950537087875 0.300810546234634 0.722111932885719
-0.107996409955445 -0.017415769931751 -0.192104908448062 -0.483519211919311 -0.184572811825759 -0.855652995576865
-0.107926785464815 -0.126070456821480 -0.139634996090606 -0.411506863016345 -0.489271026681753 -0.768944708116410
-0.107917555849871 0.205476581316005 -0.067551304419420 -0.508041240964385 0.645061441428797 -0.570780022654236
-0.107837310692551 -0.212300193893482 -0.043133436641430 -0.515590506295241 -0.817299611034457 -0.257269849809774
-0.107794224465741 -0.022369206520053 -0.193491827943360 -0.518721910178864 -0.192462283428151 -0.832998108856204
-0.107782312758090 0.038853236459435 0.189754071629674 -0.614412948394371 0.175383618587306 0.769244639355100
-0.107711717961187 -0.127385427606668 -0.142271820799156 -0.453714145328761 -0.528208213871783 -0.717732232191764
-0.107674952777176 0.030337675908966 -0.193568904651103 -0.510847935967144 0.082760997202432 -0.855678095816510
-0.107614712730388 -0.061810960497538 -0.180155225879709 -0.523032192251799 -0.303670249862922 -0.796380377217111
-0.107544948873225 0.076307319686697 0.179640573223933 -0.622950537087875 0.300810546234634 0.722111932885719
-0.107496496477259 -0.023354606461816 -0.193449553787383 -0.518721910178864 -0.192462283428151 -0.832998108856204
-0.107435433736862 0.192748235761914 0.072933809121916 -0.465264901775962 0.662927840457937 0.586562229879473
-0.107396256054906 -0.075459798687192 0.178796614542754 -0.437087918812825 -0.419418122202802 0.795639736310190
-0.107374661195958 0.030261054837584 -0.193755592345352 -0.520622098143145 0.187194517263165 -0.833013111320368
-0.107336974898231 0.114205873670345 -0.159025343678506 -0.468099070652606 0.584948521361487 -0.662358277227043
-0.107191064928655 0.149811091067247 0.119856287483419 -0.541242684909039 0.547777766096441 0.637962283370143
-0.107177844907109 -0.113488596702022 0.147636855619871 -0.431086136595922 -0.612338206265170 0.662726688750918
-0.107080367397157 0.077385055855769 0.179592404617248 -0.622950537087875 0.300810546234634 0.722111932885719
-0.107078256905179 0.096962371501954 0.165329837908354 -0.541242684909039 0.547777766096441 0.637962283370143
-0.107020344221552 0.162859118465407 0.107043496970803 -0.452712383007773 0.647912550541462 0.612585361498527
-0.106958140527133 0.114745429267388 0.150162559530951 -0.541242684909039 0.547777766096441 0.637962283370144
-0.106925890645192 -0.166660785907971 0.090344695969294 -0.476950093383830 -0.691884040939577 0.542047121857757
-0.106864473595612 0.095277859732766 -0.172866246026508 -0.506073102073736 0.436424818887802 -0.743924319280002
-0.106815744330920 -0.145474571213030 -0.127494704976151 -0.473012295020383 -0.547202786062701 -0.690527682055374
-0.106778642092892 -0.107170217999637 -0.152275447383881 -0.451947259135852 -0.529699714164330 -0.717747788414438
-0.106743022550795 0.098290035805196 -0.171039501733618 -0.424032389385087 0.516495330628291 -0.743928159294664
-0.106655067606166 -0.164462936210575 -0.110071085631162 -0.504889621030759 -0.581835323237735 -0.637615971575569
-0.106630250429104 -0.021884218109752 -0.191913020301783 -0.483519211919311 -0.184572811825759 -0.855652995576865
-0.106615785921089 0.078462792024840 0.179544236010563 -0.622950537087875 0.300810546234634 0.722111932885719
-0.106127770698302 -0.218706171693314 -0.022366918253118 -0.535256770167941 -0.836914314138585 -0.114344308032036
-0.106102624900613 -0.097207709625815 0.159918595259000 -0.415818188622535 -0.586444355907716 0.695110244086978
-0.106064352538707 -0.088869811834761 -0.167596459699701 -0.413141891727175 -0.487913573396936 -0.768930505439291
-0.106052325395311 0.148441399454311 0.121998453392029 -0.439679885877988 0.632210325572757 0.637959012941668
-0.106040364955027 -0.064895952790423 -0.180012849428285 -0.523032192251799 -0.303670249862922 -0.796380377217111
-0.106031729439636 -0.070743773557443 -0.177597638880089 -0.368654254037047 -0.445972199230432 -0.815599680292949
-0.105937582043131 -0.140800029144686 0.119045400213116 -0.441806884389338 -0.630668721798505 0.638015391860749
-0.105863222677971 0.033767290109703 -0.193912300891111 -0.520622098143145 0.187194517263165 -0.833013111320368
-0.105861329537919 0.133561527438850 0.134936895645208 -0.541242684909038 0.547777766096441 0.637962283370144
-0.105779931239834 -0.034169676722477 0.197376138364800 -0.395238193806561 -0.374696464010793 0.838683092719971
-0.105735828104403 -0.217353992913311 0.000053199543113 -0.545306859754348 -0.827774139340020 0.132024251350806
-0.105733598606850 0.047659300975896 0.189382690480279 -0.614412948394371 0.175383618587306 0.769244639355100
-0.105702526744418 0.233205599260767 -0.027620767203569 -0.580786407502701 0.756731917230852 -0.300073248231536
-0.105616348267368 -0.203952505173203 -0.061969980600587 -0.468383741132792 -0.754203152356804 -0.460211121136277
-0.105580936356543 0.222595745676949 -0.047850765888645 -0.550945653199144 0.706959105853479 -0.443472332701623
-0.105534639594935 0.075402580140419 -0.184450759476297 -0.443731653704152 0.373488002710224 -0.814621956083008
-0.105503798351638 -0.212979655244889 0.020659896979624 -0.532379871853424 -0.796211487556020 0.287435104204692
-0.105418229170274 -0.056790348533622 0.187440410148924 -0.435722709502778 -0.420863644990415 0.795625233856330
-0.105362801113145 0.096866164135463 -0.172956014015650 -0.506073102073736 0.436424818887802 -0.743924319280002
-0.105329966620264 0.234352657205645 0.015639435486884 -0.569220442213301 0.779719361729835 0.260817570554810
-0.105264090902763 -0.026352666287753 -0.191721132155505 -0.483519211919311 -0.184572811825759 -0.855652995576865
-0.105139890956453 -0.129103694310233 0.135779866274073 -0.451134754137947 -0.651965031791302 0.609441573024240
-0.105111987873421 0.079395535167717 0.180381163388512 -0.565887390113867 0.405149647596068 0.718070487322030
-0.105093351559892 0.130962874029248 -0.143427431113695 -0.496482285777461 0.623027357745754 -0.604435481593802
-0.105002446667143 -0.191699808716283 -0.080625937158192 -0.447466945432329 -0.726668679239594 -0.521273405572974
-0.104650479022314 0.239548843689242 -0.007258199220044 -0.599181437142082 0.800228110223047 -0.024830968430594
-0.104627646258621 0.080136487461171 0.180344796835761 -0.565887390113867 0.405149647596068 0.718070487322030
-0.104534590044303 0.076460322839129 -0.184510541111940 -0.443731653704152 0.373488002710224 -0.814621956083008
-0.104466017179666 -0.067980945083309 -0.179870472976861 -0.523032192251799 -0.303670249862922 -0.796380377217111
-0.104382881008305 -0.179490177831300 -0.097217664334458 -0.425030260353058 -0.696484192478451 -0.578151405266693
-0.104351784159984 0.037273525381821 -0.194069009436871 -0.520622098143145 0.187194517263165 -0.833013111320368
-0.104309490058885 -0.156341661932855 0.104810133236831 -0.455594507211462 -0.654454576817961 0.603425929075615
-0.104170526633811 -0.156138671804942 0.105107014040650 -0.439709139934980 -0.632121533224687 0.638026832892874
-0.104163363219645 0.100045426248034 0.165155589430229 -0.541242684909039 0.547777766096441 0.637962283370143
-0.104143304643821 0.080877439754625 0.180308430283011 -0.565887390113867 0.405149647596068 0.718070487322030
-0.104067763384193 0.180164838397380 0.089826719629262 -0.465264901775961 0.662927840457937 0.586562229879475
-0.104027485035393 0.145505589284841 -0.129336113468150 -0.494547475527824 0.624566327954297 -0.604433368068592
-0.103897931376422 -0.030821114465755 -0.191529244009226 -0.483519211919311 -0.184572811825759 -0.855652995576865
-0.103880464406405 0.118000657414473 0.149978580134770 -0.541242684909039 0.547777766096441 0.637962283370144
-0.103824771574843 0.225603920750223 0.036556912077980 -0.519316094329256 0.725963048483870 0.450875200478597
-0.103684884455611 0.056465365492357 0.189011309330884 -0.614412948394371 0.175383618587306 0.769244639355100
-0.103658963029021 0.081618392048078 0.180272063730261 -0.565887390113867 0.405149647596068 0.718070487322030
-0.103534540493672 0.077518065537839 -0.184570322747583 -0.443731653704152 0.373488002710224 -0.814621956083008
-0.103529275911511 -0.131297726182020 -0.142036530930470 -0.453714145328761 -0.528208213871783 -0.717732232191764
-0.103358413427000 -0.220495847047278 -0.022231470383593 -0.535256770167941 -0.836914314138585 -0.114344308032036
-0.103199156579720 -0.193052434221797 0.057725131556676 -0.491287976477884 -0.717549877771360 0.493718844159885
-0.103174621414221 0.082359344341532 0.180235697177510 -0.565887390113867 0.405149647596068 0.718070487322030
-0.103106846898028 0.211082070558047 0.055646521496189 -0.475573136783101 0.675169510046410 0.563893894517375
-0.103076847430007 -0.116158117241024 0.147837894362410 -0.431086136595922 -0.612338206265170 0.662726688750918
-0.102840345641997 0.040779760653940 -0.194225717982630 -0.520622098143145 0.187194517263165 -0.833013111320368
-0.102710687299636 -0.078731971744642 0.175526427536756 -0.473756553441362 -0.464663727294438 0.748092473300060
-0.102690279799421 0.083100296634986 0.180199330624760 -0.565887390113867 0.405149647596068 0.718070487322030
-0.102620870981996 0.136988928986939 0.134743185330970 -0.541242684909038 0.547777766096441 0.637962283370144
-0.102534490943040 0.078575808236549 -0.184630104383226 -0.443731653704152 0.373488002710224 -0.814621956083008
-0.102531771850081 -0.035289562643756 -0.191337355862948 -0.483519211919311 -0.184572811825759 -0.855652995576865
-0.102217947320090 -0.017903330001051 0.202507872651825 -0.464242208361969 -0.197062248581969 0.863507754544810
-0.102205938184621 0.083841248928440 0.180162964072010 -0.565887390113867 0.405149647596068 0.718070487322030
-0.101721596569821 0.084582201221893 0.180126597519260 -0.565887390113867 0.405149647596068 0.718070487322030
-0.101694566545340 -0.143561995491142 0.119253400950744 -0.441806884389338 -0.630668721798505 0.638015391860749
-0.101647472845754 -0.038009718171703 0.197607996429741 -0.395238193806561 -0.374696464010793 0.838683092719971
-0.101646676402502 0.178681719293941 -0.099695347680365 -0.491217140430660 0.619540281296626 -0.612270823082419
-0.101636170304371 0.065271430008818 0.188639928181489 -0.614412948394371 0.175383618587306 0.769244639355100
-0.101534441392409 0.079633550935259 -0.184689886018869 -0.443731653704152 0.373488002710224 -0.814621956083008
-0.101361157085398 -0.019582241936527 0.202585356645603 -0.464242208361969 -0.197062248581969 0.863507754544810
-0.101328907124010 0.044285995926059 -0.194382426528389 -0.520622098143145 0.187194517263165 -0.833013111320368
-0.101248469534111 0.103128480994114 0.164981340952105 -0.541242684909039 0.547777766096441 0.637962283370143
-0.101237254955021 0.085323153515347 0.180090230966509 -0.565887390113867 0.405149647596068 0.718070487322030
-0.101165612323740 -0.039758010821757 -0.191145467716669 -0.483519211919311 -0.184572811825759 -0.855652995576865
-0.101125559324318 -0.216637610423351 -0.042805168261966 -0.515590506295241 -0.817299611034457 -0.257269849809774
-0.101086298407056 -0.060815747484951 0.187683459924248 -0.435722709502778 -0.420863644990415 0.795625233856330
-0.100863818039479 -0.129620930668967 0.133609204992217 -0.455594507211462 -0.654454576817960 0.603425929075616
-0.100802788285676 0.121255885561557 0.149794600738589 -0.541242684909039 0.547777766096441 0.637962283370144
-0.100752913340221 0.086064105808801 0.180053864413759 -0.565887390113867 0.405149647596068 0.718070487322030
-0.100711637806698 0.194628242104196 -0.084040561197918 -0.504333240611565 0.634844666145368 -0.585337707892643
-0.100693023003388 -0.132792350918595 -0.139229134492834 -0.411506863016345 -0.489271026681753 -0.768944708116410
-0.100631602820172 -0.151259279700299 -0.127146806349771 -0.473012295020383 -0.547202786062701 -0.690527682055374
-0.100618995061688 0.086138258192311 0.180103809782745 -0.522206043693658 0.531420771608004 0.667002857140336
-0.100589056155698 -0.222285522401242 -0.022096022514069 -0.535256770167941 -0.836914314138585 -0.114344308032036
-0.100534391841777 0.080691293633969 -0.184749667654512 -0.443731653704152 0.373488002710224 -0.814621956083008
-0.100506398350465 0.119276513845189 -0.159374585273807 -0.468099070652606 0.584948521361487 -0.662358277227043
-0.100504366850707 -0.021261153872003 0.202662840639381 -0.464242208361969 -0.197062248581969 0.863507754544810
-0.100494466903689 -0.001694718764345 0.203947525938634 -0.556042894131105 0.163728015146189 0.814867741994119
-0.100268527123644 0.103127605539236 -0.171371272461388 -0.424032389385087 0.516495330628291 -0.743928159294664
-0.100223697673667 0.167937390896512 0.106695218344776 -0.452712383007773 0.647912550541462 0.612585361498527
-0.100183220460256 -0.132306903631287 0.136022294531923 -0.451134754137947 -0.651965031791302 0.609441573024240
-0.100124937586091 -0.044384748987351 -0.190735507317294 -0.467510473752640 -0.277319779852334 -0.839361481504980
-0.100083729384448 -0.094464147193916 -0.167260010319194 -0.413141891727175 -0.487913573396936 -0.768930505439291
-0.100070495714779 0.241736522478337 -0.001473684210951 -0.285010276864967 0.958389424715707 -0.016088899106268
-0.099817468606023 0.047792231198177 -0.194539135074148 -0.520622098143145 0.187194517263165 -0.833013111320368
-0.099799452797399 -0.044226458999759 -0.190953579570390 -0.483519211919311 -0.184572811825759 -0.855652995576865
-0.099647576616015 -0.022940065807479 0.202740324633159 -0.464242208361969 -0.197062248581969 0.863507754544810
-0.099534342291146 0.081749036332679 -0.184809449290155 -0.443731653704152 0.373488002710224 -0.814621956083008
-0.099475116412486 0.153355714008668 0.121661419342738 -0.439679885877988 0.632210325572757 0.637959012941668
-0.099460814255314 -0.183503010304315 0.074309520273111 -0.484954356877233 -0.706147972945960 0.515920838937623
-0.099380412426073 0.140416330535029 0.134549475016733 -0.541242684909038 0.547777766096441 0.637962283370144
-0.099346833861835 -0.135210024757372 -0.141801241061784 -0.453714145328761 -0.528208213871783 -0.717732232191764
-0.099301507242954 -0.045998290989989 -0.190661040231885 -0.467510473752640 -0.277319779852334 -0.839361481504980
-0.099264472938105 -0.171330564908409 -0.109656424716257 -0.504889621030759 -0.581835323237735 -0.637615971575569
-0.099206842906689 -0.159346413371318 0.105349785312092 -0.439709139934980 -0.632121533224687 0.638026832892874
-0.098975849952905 -0.118827637780026 0.148038933104948 -0.431086136595922 -0.612338206265170 0.662726688750918
-0.098914200872342 0.238277654705558 -0.027968619455572 -0.580786407502701 0.756731917230852 -0.300073248231536
-0.098859387149912 -0.207820879580447 0.039472795615486 -0.506885922258801 -0.746191160456909 0.431584770203742
-0.098849334262734 -0.077417935171155 -0.177194659324447 -0.368654254037047 -0.445972199230432 -0.815599680292949
-0.098819667178674 0.005504135415340 0.203643926216581 -0.556042894131105 0.163728015146189 0.814867741994119
-0.098790786381323 -0.024618977742955 0.202817808626936 -0.464242208361969 -0.197062248581969 0.863507754544810
-0.098675148447121 0.088194245880793 0.179987609210499 -0.522206043693658 0.531420771608004 0.667002857140336
-0.098648984126395 -0.001316485016775 0.205024626562756 -0.522223922251727 -0.026827675528266 0.852386327233005
-0.098601642828896 0.239379880701308 0.015294657904438 -0.569220442213301 0.779719361729835 0.260817570554810
-0.098595847098423 0.212396499504864 -0.068027915495004 -0.508041240964385 0.645061441428797 -0.570780022654236
-0.098534292740515 0.082806779031389 -0.184869230925798 -0.443731653704152 0.373488002710224 -0.814621956083008
-0.098525663766873 0.227867256565976 -0.048212297215375 -0.550945653199144 0.706959105853479 -0.443472332701623
-0.098478076899818 -0.047611832992627 -0.190586573146477 -0.467510473752640 -0.277319779852334 -0.839361481504980
-0.098424149834056 -0.003207723797940 0.205102849668294 -0.522223922251727 -0.026827675528266 0.852386327233005
-0.098405645284016 0.239701043479266 -0.024161306870856 -0.286424462224053 0.935802759755332 -0.205509664672899
-0.098333575848578 0.106211535740194 0.164807092473981 -0.541242684909039 0.547777766096441 0.637962283370143
-0.098312497680573 -0.115037289451589 -0.151800441062277 -0.451947259135852 -0.529699714164330 -0.717747788414438
-0.098306030088037 0.051298466470296 -0.194695843619908 -0.520622098143145 0.187194517263165 -0.833013111320368
-0.098302801157016 -0.172273936032268 0.090767416314083 -0.476950093383830 -0.691884040939577 0.542047121857757
-0.098287660021183 0.139101952874321 0.136605131187228 -0.439679885877989 0.632210325572758 0.637959012941667
-0.098199315541716 -0.005098962579104 0.205181072773833 -0.522223922251727 -0.026827675528266 0.852386327233005
-0.097974481249376 -0.006990201360268 0.205259295879371 -0.522223922251727 -0.026827675528266 0.852386327233005
-0.097933996146631 -0.026297889678430 0.202895292620714 -0.464242208361969 -0.197062248581969 0.863507754544810
-0.097819698884396 -0.224075197755206 -0.021960574644544 -0.535256770167941 -0.836914314138585 -0.114344308032036
-0.097786903796916 -0.102620780081693 0.160326247817511 -0.415818188622535 -0.586444355907716 0.695110244086978
-0.097749646957037 -0.008881440141432 0.205337518984910 -0.522223922251727 -0.026827675528266 0.852386327233005
-0.097725112164948 0.124511113708642 0.149610621342408 -0.541242684909039 0.547777766096441 0.637962283370144
-0.097697859345915 -0.209106999642343 -0.061581801123653 -0.468383741132792 -0.754203152356804 -0.460211121136277
-0.097654646556681 -0.049225374995265 -0.190512106061068 -0.467510473752640 -0.277319779852334 -0.839361481504980
-0.097564453670445 0.200123567932875 0.072427993297767 -0.465264901775962 0.662927840457937 0.586562229879473
-0.097534243189883 0.083864521730099 -0.184929012561441 -0.443731653704152 0.373488002710224 -0.814621956083008
-0.097524812664697 -0.010772678922597 0.205415742090448 -0.522223922251727 -0.026827675528266 0.852386327233005
-0.097515014451675 -0.041849759620930 0.197839854494682 -0.395238193806561 -0.374696464010793 0.838683092719971
-0.097490360423132 -0.168904309623941 -0.113523976403230 -0.398074637596179 -0.659550897458471 -0.637596421386127
-0.097451551047549 -0.146323961837598 0.119461401688372 -0.441806884389338 -0.630668721798505 0.638015391860749
-0.097345463157803 -0.083717547187712 0.175827451859053 -0.473756553441362 -0.464663727294438 0.748092473300060
-0.097311894034531 -0.146119958554807 0.119759764269954 -0.462459195681406 -0.671822184483268 0.578607332105148
-0.097299978372358 -0.012663917703761 0.205493965195987 -0.522223922251727 -0.026827675528266 0.852386327233005
-0.097163602425112 -0.184189525383259 -0.096863761486065 -0.425030260353058 -0.696484192478451 -0.578151405266693
-0.097144867453659 0.012702989595026 0.203340326494528 -0.556042894131105 0.163728015146189 0.814867741994119
-0.097140243865576 0.165815077650819 -0.113981092110042 -0.483224856764498 0.603220480025152 -0.634522489974277
-0.097077205911940 -0.027976801613906 0.202972776614492 -0.464242208361969 -0.197062248581969 0.863507754544810
-0.097075144080018 -0.014555156484925 0.205572188301525 -0.522223922251727 -0.026827675528266 0.852386327233005
-0.096978914535159 -0.196922680454505 -0.080232608262103 -0.447466945432329 -0.726668679239594 -0.521273405572974
-0.096875060938706 0.088121443371954 -0.183044027929205 -0.371173875297755 0.443825697931677 -0.815627797559589
-0.096850309787678 -0.016446395266090 0.205650411407064 -0.522223922251727 -0.026827675528266 0.852386327233005
-0.096831216213545 -0.050838916997903 -0.190437638975659 -0.467510473752640 -0.277319779852334 -0.839361481504980
-0.096794591570049 0.054804701742415 -0.194852552165667 -0.520622098143145 0.187194517263165 -0.833013111320368
-0.096754367643838 -0.064841146436280 0.187926509699572 -0.435722709502778 -0.420863644990415 0.795625233856330
-0.096749254302658 0.230890557924304 0.036194343358742 -0.519316094329256 0.725963048483870 0.450875200478597
-0.096731301832554 0.090250233569276 0.179871408638253 -0.522206043693658 0.531420771608004 0.667002857140336
-0.096697176641698 -0.223237650696398 0.000496291530965 -0.545306859754348 -0.827774139340020 0.132024251350806
-0.096625475495339 -0.018337634047254 0.205728634512602 -0.522223922251727 -0.026827675528266 0.852386327233005
-0.096534193639252 0.084922264428809 -0.184988794197084 -0.443731653704152 0.373488002710224 -0.814621956083008
-0.096342814232720 -0.218942944761517 0.021108985948336 -0.532379871853424 -0.796211487556020 0.287435104204692
-0.096220415677248 -0.029655713549382 0.203050260608270 -0.464242208361969 -0.197062248581969 0.863507754544810
-0.096007785870408 -0.052452459000541 -0.190363171890251 -0.467510473752640 -0.277319779852334 -0.839361481504980
-0.095956525047469 0.242956995400921 -0.001649928510150 -0.285010276864967 0.958389424715707 -0.016088899106268
-0.095870990945974 0.240452987826432 -0.024269892569114 -0.286424462224053 0.935802759755332 -0.205509664672899
-0.095860729426604 0.137861242234208 -0.143900535743832 -0.496482285777461 0.623027357745754 -0.604435481593802
-0.095756473644037 -0.000494927724514 -0.202671542154274 -0.483519211919311 -0.184572811825759 -0.855652995576865
-0.095707087471230 0.064020574734058 0.193336350850868 -0.516885449005556 0.375629818360762 0.769240971454710
-0.095560545342377 0.008929408277056 -0.202871923683663 -0.489325562190702 0.077205649449893 -0.868677029672003
-0.095522119473667 0.186549914856941 0.089388817628812 -0.465264901775961 0.662927840457937 0.586562229879475
-0.095470067728644 0.019901843774711 0.203036726772475 -0.556042894131105 0.163728015146189 0.814867741994119
-0.095418682163044 0.109294590486274 0.164632843995857 -0.541242684909039 0.547777766096441 0.637962283370143
-0.095363625442556 -0.031334625484858 0.203127744602048 -0.464242208361969 -0.197062248581969 0.863507754544810
-0.095283153052063 0.058310937014533 -0.195009260711426 -0.520622098143145 0.187194517263165 -0.833013111320368
-0.095226549964060 -0.135510112952341 0.136264722789772 -0.451134754137947 -0.651965031791302 0.609441573024240
-0.095184355527271 -0.054066001003179 -0.190288704804842 -0.467510473752640 -0.277319779852334 -0.839361481504980
-0.095164391812159 -0.139122323332723 -0.141565951193099 -0.453714145328761 -0.528208213871783 -0.717732232191764
-0.095147453007653 -0.106619869323292 0.162839240958833 -0.413866183516754 -0.587810895883154 0.695120948340877
-0.095050341613094 -0.225864873109170 -0.021825126775020 -0.535256770167941 -0.836914314138585 -0.114344308032036
-0.094877440872031 0.062442057923575 -0.194409600346535 -0.399307737347387 0.329166118580737 -0.855688609993730
-0.094874852475803 -0.121497158319029 0.148239971847486 -0.431086136595922 -0.612338206265170 0.662726688750918
-0.094787455217986 0.092306221257758 0.179755208066007 -0.522206043693658 0.531420771608004 0.667002857140336
-0.094754964479124 0.012392066574575 -0.203017955547964 -0.489325562190702 0.077205649449893 -0.868677029672003
-0.094647436044219 0.127766341855726 0.149426641946227 -0.541242684909039 0.547777766096441 0.637962283370144
-0.094600673578040 0.217437655648540 0.055210642075984 -0.475573136783101 0.675169510046410 0.563893894517375
-0.094548323545752 -0.004446557092346 -0.202501847709141 -0.483519211919311 -0.184572811825759 -0.855652995576865
-0.094506835207865 -0.033013537420334 0.203205228595826 -0.464242208361969 -0.197062248581969 0.863507754544810
-0.094447461309425 -0.157043988187568 -0.126798907723391 -0.473012295020383 -0.547202786062701 -0.690527682055374
-0.094413807956085 -0.220975026953221 -0.042476899882503 -0.515590506295241 -0.817299611034457 -0.257269849809774
-0.094360925184135 -0.055679543005816 -0.190214237719433 -0.467510473752640 -0.277319779852334 -0.839361481504980
-0.094299181155836 -0.000215877857498 -0.203555234419637 -0.495293098149319 -0.009160348971668 -0.868677635796137
-0.094252888552490 0.000646537963225 -0.203590723346183 -0.495293098149319 -0.009160348971668 -0.868677635796137
-0.094243159179567 -0.162554154937695 0.105592556583535 -0.439709139934980 -0.632121533224687 0.638026832892874
-0.094206595949144 0.001508953783948 -0.203626212272729 -0.495293098149319 -0.009160348971668 -0.868677635796137
-0.094160303345797 0.002371369604671 -0.203661701199276 -0.495293098149319 -0.009160348971668 -0.868677635796137
-0.094114010742451 0.003233785425394 -0.203697190125822 -0.495293098149319 -0.009160348971668 -0.868677635796137
-0.094103106230189 -0.100058482553072 -0.166923560938686 -0.413141891727175 -0.487913573396936 -0.768930505439291
-0.094067718139105 0.004096201246117 -0.203732679052369 -0.495293098149319 -0.009160348971668 -0.868677635796137
-0.094021425535758 0.004958617066840 -0.203768167978915 -0.495293098149319 -0.009160348971668 -0.868677635796137
-0.093975132932412 0.005821032887563 -0.203803656905462 -0.495293098149319 -0.009160348971668 -0.868677635796137
-0.093949383615871 0.015854724872093 -0.203163987412265 -0.489325562190702 0.077205649449893 -0.868677029672003
-0.093928840329066 0.006683448708286 -0.203839145832008 -0.495293098149319 -0.009160348971668 -0.868677635796137
-0.093882547725719 0.007545864529009 -0.203874634758555 -0.495293098149319 -0.009160348971668 -0.868677635796137
-0.093859527484424 -0.156234643333139 -0.127926230922489 -0.370516830880571 -0.621201807944262 -0.690525591010933
-0.093795268003629 0.027100697954396 0.202733127050422 -0.556042894131105 0.163728015146189 0.814867741994119
-0.093794031696493 0.107965175273276 -0.171703043189157 -0.424032389385087 0.516495330628291 -0.743928159294664
-0.093779795402158 0.066968971970840 0.193191641070512 -0.516885449005556 0.375629818360762 0.769240971454710
-0.093771714534076 0.061817172286652 -0.195165969257185 -0.520622098143145 0.187194517263165 -0.833013111320368
-0.093675821802699 0.124347154020033 -0.159723826869109 -0.468099070652606 0.584948521361487 -0.662358277227043
-0.093650339715846 0.153209004888125 -0.129866688121802 -0.494547475527824 0.624566327954297 -0.604433368068592
-0.093537494840998 -0.057293085008454 -0.190139770634025 -0.467510473752640 -0.277319779852334 -0.839361481504980
-0.093459260541962 -0.139514245015710 -0.138823272895062 -0.411506863016345 -0.489271026681753 -0.768944708116410
-0.093453111379760 -0.199396565858211 0.058202901338945 -0.491287976477884 -0.717549877771360 0.493718844159885
-0.093427051125781 0.173015663327617 0.106346939718749 -0.452712383007773 0.647912550541462 0.612585361498527
-0.093382556057595 -0.045689801070157 0.198071712559623 -0.395238193806561 -0.374696464010793 0.838683092719971
-0.093340173447468 -0.008398186460178 -0.202332153264007 -0.483519211919311 -0.184572811825759 -0.855652995576865
-0.093336336607932 0.241204932173598 -0.024378478267371 -0.286424462224053 0.935802759755332 -0.205509664672899
-0.093143802752617 0.019317383169611 -0.203310019276566 -0.489325562190702 0.077205649449893 -0.868677029672003
-0.093079828635002 0.060016136329088 -0.196087969800147 -0.450600559715313 0.254489444836259 -0.855683503435224
-0.093025764119229 0.060098285684324 -0.196092007925513 -0.450600559715313 0.254489444836259 -0.855683503435224
-0.092971699603457 0.060180435039559 -0.196096046050879 -0.450600559715313 0.254489444836259 -0.855683503435224
-0.092917635087684 0.060262584394795 -0.196100084176244 -0.450600559715313 0.254489444836259 -0.855683503435224
-0.092897907429661 0.158270028563025 0.121324385293448 -0.439679885877988 0.632210325572757 0.637959012941668
-0.092863570571911 0.060344733750031 -0.196104122301610 -0.450600559715313 0.254489444836259 -0.855683503435224
-0.092843608603419 0.094362208946240 0.179639007493761 -0.522206043693658 0.531420771608004 0.667002857140336
-0.092809506056138 0.060426883105267 -0.196108160426976 -0.450600559715313 0.254489444836259 -0.855683503435224
-0.092795130126933 0.241402085603583 0.019922390712140 -0.424601609913400 0.867000327902895 0.260813926536183
-0.092755441540366 0.060509032460503 -0.196112198552342 -0.450600559715313 0.254489444836259 -0.855683503435224
-0.092714064497862 -0.058906627011092 -0.190065303548616 -0.467510473752640 -0.277319779852334 -0.839361481504980
-0.092701377024593 0.060591181815739 -0.196116236677707 -0.450600559715313 0.254489444836259 -0.855683503435224
-0.092647312508820 0.060673331170975 -0.196120274803073 -0.450600559715313 0.254489444836259 -0.855683503435224
-0.092593247993048 0.060755480526210 -0.196124312928439 -0.450600559715313 0.254489444836259 -0.855683503435224
-0.092587790696249 0.064863798680825 -0.194546472596986 -0.399307737347387 0.329166118580737 -0.855688609993730
-0.092503788477510 0.112377645232353 0.164458595517732 -0.541242684909039 0.547777766096441 0.637962283370143
-0.092501530823704 -0.058722786131117 -0.190232721433538 -0.371146226490663 -0.445763696319528 -0.814582841462606
-0.092464637762862 0.185497954158969 -0.100164817541394 -0.491217140430660 0.619540281296626 -0.612270823082419
-0.092422436880620 -0.068866545387609 0.188169559474897 -0.435722709502778 -0.420863644990415 0.795625233856330
-0.092362612027600 0.241619885128173 0.019902513023810 -0.424601609913400 0.867000327902895 0.260813926536183
-0.092338221889364 0.022780041467129 -0.203456051140867 -0.489325562190702 0.077205649449893 -0.868677029672003
-0.092280984341792 -0.227654548463134 -0.021689678905495 -0.535256770167941 -0.836914314138585 -0.114344308032036
-0.092277723520091 -0.149373251653067 0.120005983014668 -0.462459195681406 -0.671822184483268 0.578607332105148
-0.092132023349183 -0.012349815828010 -0.202162458818874 -0.483519211919311 -0.184572811825759 -0.855652995576865
-0.092120468278613 0.034299552134082 0.202429527328369 -0.556042894131105 0.163728015146189 0.814867741994119
-0.091980239015970 -0.088703122630781 0.176128476181350 -0.473756553441362 -0.464663727294438 0.748092473300060
-0.091930093928267 0.241837684652764 0.019882635335480 -0.424601609913400 0.867000327902895 0.260813926536183
-0.091907623142229 0.143868945708736 0.136278200771979 -0.439679885877989 0.632210325572758 0.637959012941667
-0.091886700291979 -0.135464533436781 0.134049280479621 -0.455594507211462 -0.654454576817960 0.603425929075616
-0.091852503333085 0.069917369207622 0.193046931290155 -0.516885449005556 0.375629818360762 0.769240971454710
-0.091842554380158 0.244177468323505 -0.001826172809349 -0.285010276864967 0.958389424715707 -0.016088899106268
-0.091729981048359 0.234889235786020 -0.044885661296204 -0.279049091529723 0.887751690837080 -0.366099084855919
-0.091666939085832 -0.084092096784868 -0.176791679768804 -0.368654254037047 -0.445972199230432 -0.815599680292949
-0.091569759923491 0.131021570002811 0.149242662550046 -0.541242684909039 0.547777766096441 0.637962283370144
-0.091532641026111 0.026242699764647 -0.203602083005168 -0.489325562190702 0.077205649449893 -0.868677029672003
-0.091497575828934 0.242055484177354 0.019862757647151 -0.424601609913400 0.867000327902895 0.260813926536183
-0.091470391177204 0.233138767455003 -0.048573828542105 -0.550945653199144 0.706959105853479 -0.443472332701623
-0.091421222308202 -0.109027916603827 0.163021489025859 -0.413866183516754 -0.587810895883154 0.695120948340877
-0.091185127048064 0.201746196025936 -0.084528725479298 -0.504333240611565 0.634844666145368 -0.585337707892643
-0.091065057729602 0.242273283701945 0.019842879958821 -0.424601609913400 0.867000327902895 0.260813926536183
-0.090980713898799 0.092497078824688 -0.183345400902494 -0.371173875297755 0.443825697931677 -0.815627797559589
-0.090923873250898 -0.016301445195842 -0.201992764373740 -0.483519211919311 -0.184572811825759 -0.855652995576865
-0.090899761988852 0.096418196634723 0.179522806921515 -0.522206043693658 0.531420771608004 0.667002857140336
-0.090897954878318 -0.173195597804822 -0.113200804070539 -0.398074637596179 -0.659550897458471 -0.637596421386127
-0.090801682269890 0.241956876520764 -0.024487063965628 -0.286424462224053 0.935802759755332 -0.205509664672899
-0.090773854998701 -0.124166678858031 0.148441010590024 -0.431086136595922 -0.612338206265170 0.662726688750918
-0.090727060162858 0.029705358062165 -0.203748114869469 -0.489325562190702 0.077205649449893 -0.868677029672003
-0.090632539630269 0.242491083226535 0.019823002270491 -0.424601609913400 0.867000327902895 0.260813926536183
-0.090522994647054 0.129762506294331 0.151211808982427 -0.439679885877987 0.632210325572756 0.637959012941671
-0.090445668553598 0.041498406313767 0.202125927606317 -0.556042894131105 0.163728015146189 0.814867741994119
-0.090298140520467 0.067285539438075 -0.194683344847438 -0.399307737347387 0.329166118580737 -0.855688609993730
-0.090269879467863 -0.138713322273395 0.136507151047622 -0.451134754137947 -0.651965031791302 0.609441573024240
-0.090200021530936 0.242708882751126 0.019803124582162 -0.424601609913400 0.867000327902895 0.260813926536183
-0.089944323841920 -0.188888872935218 -0.096509858637672 -0.425030260353058 -0.696484192478451 -0.578151405266693
-0.089925211264012 0.072865766444404 0.192902221509799 -0.516885449005556 0.375629818360762 0.769240971454710
-0.089921479299605 0.033168016359683 -0.203894146733770 -0.489325562190702 0.077205649449893 -0.868677029672003
-0.089846353268254 -0.122904360903542 -0.151325434740674 -0.451947259135852 -0.529699714164330 -0.717747788414438
-0.089828255908499 0.235453411913438 -0.044967132031328 -0.279049091529723 0.887751690837080 -0.366099084855919
-0.089779370424462 -0.214261494111482 -0.061193621646718 -0.468383741132792 -0.754203152356804 -0.460211121136277
-0.089767503431604 0.242926682275716 0.019783246893832 -0.424601609913400 0.867000327902895 0.260813926536183
-0.089715723152614 -0.020253074563674 -0.201823069928607 -0.483519211919311 -0.184572811825759 -0.855652995576865
-0.089679711668839 -0.177887086156566 0.091190136658871 -0.476950093383830 -0.691884040939577 0.542047121857757
-0.089673737030473 0.236177195098385 0.035831774639503 -0.519316094329256 0.725963048483870 0.450875200478597
-0.089588894791976 0.115460699978433 0.164284347039608 -0.541242684909039 0.547777766096441 0.637962283370143
-0.089511627070490 -0.229444223817098 -0.021554231035971 -0.535256770167941 -0.836914314138585 -0.114344308032036
-0.089471182693220 -0.108033850537570 0.160733900376021 -0.415818188622535 -0.586444355907716 0.695110244086978
-0.089334985332271 0.243144481800307 0.019763369205502 -0.424601609913400 0.867000327902895 0.260813926536183
-0.089279475452445 -0.165761896504071 0.105835327854977 -0.439709139934980 -0.632121533224687 0.638026832892874
-0.089274138346975 0.219316417693724 -0.068504526570588 -0.508041240964385 0.645061441428797 -0.570780022654236
