ply
format ascii 1.0
element vertex 427
property double x
property double y
property double z
property double nx
property double ny
property double nz
end_header
-0.229068958379522 0.088850031957870 0.064336683896037 -0.875874795898162 0.234689944231687 0.421620649383876
-0.229059391024699 0.107837400344100 -0.044564091023661 -0.763357551284248 0.440724687721894 -0.472278517963454
-0.229056664136048 -0.006707634333477 -0.083560038077514 -0.788281911958668 0.082851767530181 -0.609710760849693
-0.229049404377161 0.078328639375696 -0.065132133034581 -0.773906520318641 0.251457471494598 -0.581238193719096
-0.229043065375771 -0.113358064106504 -0.000624995751713 -0.865610167943613 -0.499760263475523 -0.030963142661968
-0.229017078928760 -0.028819395231054 -0.085264571945822 -0.788281911958668 -0.082851767530181 -0.609710760849693
-0.229003041240241 -0.022751985309066 -0.085207754150212 -0.791537725474841 0.041482734410886 -0.609710760849692
-0.228976579947699 -0.092829421174153 -0.044677726614881 -0.804507462031699 -0.464482599769064 -0.370167067750612
-0.228955526561941 -0.111956666033011 -0.002405286680835 -0.865559604923105 -0.499731070902021 -0.032793705195931
-0.228951830604224 0.045312228525589 0.085984264023552 -0.874881810907645 0.185961869594171 0.447213595499958
-0.228941306898781 -0.108079806580166 -0.022443029266059 -0.846340557864140 -0.488634948908959 -0.211998931174086
-0.228937043232830 0.125136215259266 -0.023371053261027 -0.780410324537094 0.567001290070665 -0.263570222927608
-0.228925883474657 -0.021279727437440 -0.085207754150212 -0.791537725474841 0.041482734410886 -0.609710760849692
-0.228923896022678 0.088981305246719 0.064526076548071 -0.794743874819705 0.458845590063963 0.397294472545761
-0.228921772683843 0.088345606349775 0.065018497443360 -0.856738523336550 0.328871106538252 0.397294472545759
-0.228890535677846 0.088426981532510 0.065018497443360 -0.856738523336550 0.328871106538252 0.397294472545759
-0.228859298671850 0.088508356715246 0.065018497443360 -0.856738523336550 0.328871106538252 0.397294472545759
-0.228848725709073 -0.019807469565815 -0.085207754150212 -0.791537725474841 0.041482734410886 -0.609710760849692
-0.228844511659108 -0.094611189906743 -0.044261062780406 -0.807495550519350 -0.466207773461772 -0.361387946472028
-0.228843469441503 -0.030471179165533 -0.085264571945822 -0.788281911958668 -0.082851767530181 -0.609710760849693
-0.228828061665853 0.088589731897982 0.065018497443360 -0.856738523336550 0.328871106538252 0.397294472545759
-0.228796824659856 0.088671107080717 0.065018497443360 -0.856738523336550 0.328871106538252 0.397294472545759
-0.228771567943489 -0.018335211694189 -0.085207754150212 -0.791537725474841 0.041482734410886 -0.609710760849692
-0.228765587653860 0.088752482263452 0.065018497443360 -0.856738523336550 0.328871106538252 0.397294472545759
-0.228765109513990 -0.109559223845397 0.020776373928158 -0.856057725987040 -0.494245158540477 0.151284146681653
-0.228761238608737 -0.033273710893718 0.084563819133295 -0.827962217123255 -0.175988802064407 0.532453292378101
-0.228734350647863 0.088833857446188 0.065018497443360 -0.856738523336550 0.328871106538252 0.397294472545759
-0.228703113641867 0.088915232628923 0.065018497443360 -0.856738523336550 0.328871106538252 0.397294472545759
-0.228694410177905 -0.016862953822564 -0.085207754150212 -0.791537725474841 0.041482734410886 -0.609710760849692
-0.228671876635870 0.088996607811659 0.065018497443360 -0.856738523336550 0.328871106538252 0.397294472545759
-0.228669859954245 -0.032122963100011 -0.085264571945822 -0.788281911958668 -0.082851767530181 -0.609710760849693
-0.228663686329662 -0.074357391411567 -0.064374562426444 -0.791186037084069 -0.403129421178976 -0.459903603490025
-0.228640639629873 0.089077982994395 0.065018497443360 -0.856738523336550 0.328871106538252 0.397294472545759
-0.228617252412321 -0.015390695950938 -0.085207754150212 -0.791537725474841 0.041482734410886 -0.609710760849692
-0.228571873354058 -0.107166664502965 -0.024223320195181 -0.844571094173467 -0.487613348570828 -0.221207796386512
-0.228569205034363 -0.095262566374265 0.044374698371626 -0.851842770436883 -0.379264836771194 0.361278394099807
-0.228556457439236 -0.095110114450896 -0.044261062780406 -0.807495550519350 -0.466207773461772 -0.361387946472028
-0.228550030541496 0.125668892530611 0.021628640862312 -0.779261001804352 0.566166258226924 0.268715572887396
-0.228540094646737 -0.013918438079312 -0.085207754150212 -0.791537725474841 0.041482734410886 -0.609710760849692
-0.228496250466988 -0.033774747034489 -0.085264571945822 -0.788281911958668 -0.082851767530181 -0.609710760849693
-0.228486430707383 -0.075332853633957 0.064829104791326 -0.822668390937734 -0.366275566142096 0.434809070971624
-0.228444328877209 0.080409758672225 -0.065037436708564 -0.744229092767896 0.331352140541415 -0.579938631612429
-0.228433642752085 -0.034814928224665 0.084563819133295 -0.827962217123255 -0.175988802064407 0.532453292378101
-0.228428351815012 -0.042225765434098 -0.084203973094430 -0.763321903299264 -0.293011825831369 -0.575746247809360
-0.228423601173091 0.108938620670022 0.044071670128371 -0.784777619717050 0.453091569997633 0.422885465331124
-0.228401091068993 0.080323942571177 -0.065132133034581 -0.773906520318641 0.251457471494598 -0.581238193719096
-0.228363335759802 -0.078589422290333 0.062935178270983 -0.833372759260215 -0.371041457977373 0.409656051566482
-0.228322640979730 -0.035426530968968 -0.085264571945822 -0.788281911958668 -0.082851767530181 -0.609710760849693
-0.228309233781148 0.000403690467192 -0.083560038077514 -0.788281911958668 0.082851767530181 -0.609710760849693
-0.228268403219363 -0.095609038995050 -0.044261062780406 -0.807495550519350 -0.466207773461772 -0.361387946472028
-0.228149702245675 0.049085945752887 0.085984264023552 -0.874881810907645 0.185961869594171 0.447213595499958
-0.228149031492473 -0.037078314903446 -0.085264571945822 -0.788281911958668 -0.082851767530181 -0.609710760849693
-0.228106046895433 -0.036356145555611 0.084563819133295 -0.827962217123255 -0.175988802064407 0.532453292378101
-0.228089478782032 0.126302787645778 -0.023371053261027 -0.780410324537094 0.567001290070665 -0.263570222927608
-0.228065871444262 0.109558226735732 -0.044564091023661 -0.763357551284248 0.440724687721894 -0.472278517963454
-0.228045389630954 -0.109631580807420 -0.022443029266059 -0.846340557864140 -0.488634948908959 -0.211998931174086
-0.227980348999491 -0.096107963539203 -0.044261062780406 -0.807495550519350 -0.466207773461772 -0.361387946472028
-0.227980279832442 -0.075698652182540 -0.064374562426444 -0.791186037084069 -0.403129421178976 -0.459903603490025
-0.227975422005215 -0.038730098837924 -0.085264571945822 -0.788281911958668 -0.082851767530181 -0.609710760849693
-0.227975209381125 0.081463418311785 -0.065037436708564 -0.744229092767896 0.331352140541415 -0.579938631612429
-0.227907299019263 -0.079613697579836 0.062935178270983 -0.833372759260215 -0.371041457977373 0.409656051566482
-0.227801812517958 -0.040381882772403 -0.085264571945822 -0.788281911958668 -0.082851767530181 -0.609710760849693
-0.227778451038781 -0.037897362886558 0.084563819133295 -0.827962217123255 -0.175988802064407 0.532453292378101
-0.227737844915186 -0.111338498323341 0.020776373928158 -0.856057725987040 -0.494245158540477 0.151284146681653
-0.227718027339413 -0.095009298235704 -0.044677726614881 -0.804507462031699 -0.464482599769064 -0.370167067750612
-0.227692294779619 -0.096606888083356 -0.044261062780406 -0.807495550519350 -0.466207773461772 -0.361387946472028
-0.227628203030701 -0.042033666706881 -0.085264571945822 -0.788281911958668 -0.082851767530181 -0.609710760849693
-0.227603864052806 -0.039362886548712 0.084355487216058 -0.830758362394632 -0.222601032309044 0.510185577732590
-0.227561803426248 0.007515015267862 -0.083560038077514 -0.788281911958668 0.082851767530181 -0.609710760849693
-0.227540829294983 -0.115960013323392 -0.000624995751713 -0.865610167943613 -0.499760263475523 -0.030963142661968
-0.227506089885042 0.082517077951345 -0.065037436708564 -0.744229092767896 0.331352140541415 -0.579938631612429
-0.227502291044870 -0.077543267506618 0.064829104791326 -0.822668390937734 -0.366275566142096 0.434809070971624
-0.227451262278723 -0.080637972869340 0.062935178270983 -0.833372759260215 -0.371041457977373 0.409656051566482
-0.227450855182128 -0.039438580217504 0.084563819133295 -0.827962217123255 -0.175988802064407 0.532453292378101
-0.227404240559747 -0.097105812627510 -0.044261062780406 -0.807495550519350 -0.466207773461772 -0.361387946472028
-0.227347573887126 0.052859662980184 0.085984264023552 -0.874881810907645 0.185961869594171 0.447213595499958
-0.227296873335223 -0.077039912953514 -0.064374562426444 -0.791186037084069 -0.403129421178976 -0.459903603490025
-0.227241914331234 0.127469360032291 -0.023371053261027 -0.780410324537094 0.567001290070665 -0.263570222927608
-0.227217615119495 0.127502805028010 0.021628640862312 -0.779261001804352 0.566166258226924 0.268715572887396
-0.227193775013618 0.091977962737653 0.064526076548071 -0.794743874819705 0.458845590063963 0.397294472545761
-0.227158952883514 -0.109613914545000 -0.024223320195181 -0.844571094173467 -0.487613348570828 -0.221207796386512
-0.227149472363127 -0.111183355034674 -0.022443029266059 -0.846340557864140 -0.488634948908959 -0.211998931174086
-0.227143928444229 -0.100576629294837 0.042083047282012 -0.839495514435497 -0.427744329341303 0.335085168217034
-0.227142021931090 -0.045576769348291 -0.084203973094430 -0.763321903299264 -0.293011825831369 -0.575746247809360
-0.227116186339874 -0.097604737171663 -0.044261062780406 -0.807495550519350 -0.466207773461772 -0.361387946472028
-0.227072351863825 0.111279053127364 -0.044564091023661 -0.763357551284248 0.440724687721894 -0.472278517963454
-0.227053580421018 0.132458417850076 -0.000132574856424 -0.743139947838777 0.669126214513321 0.003623117063139
-0.227036970388958 0.083570737590905 -0.065037436708564 -0.744229092767896 0.331352140541415 -0.579938631612429
-0.226995225538183 -0.081662248158843 0.062935178270983 -0.833372759260215 -0.371041457977373 0.409656051566482
-0.226937027752838 -0.041851553500523 0.084355487216058 -0.830758362394632 -0.222601032309044 0.510185577732590
-0.226891113343974 0.111592967452034 0.044071670128371 -0.784777619717050 0.453091569997633 0.422885465331124
-0.226828132120002 -0.098103661715816 -0.044261062780406 -0.807495550519350 -0.466207773461772 -0.361387946472028
-0.226814373071347 0.014626340068531 -0.083560038077514 -0.788281911958668 0.082851767530181 -0.609710760849693
-0.226813256254358 -0.099206491907247 0.044374698371626 -0.851842770436883 -0.379264836771194 0.361278394099807
-0.226710580316382 -0.113117772801286 0.020776373928158 -0.856057725987040 -0.494245158540477 0.151284146681653
-0.226613466838003 -0.078381173724487 -0.064374562426444 -0.791186037084069 -0.403129421178976 -0.459903603490025
-0.226595877638150 -0.101652239564397 0.042083047282012 -0.839495514435497 -0.427744329341303 0.335085168217034
-0.226567850892874 0.084624397230465 -0.065037436708564 -0.744229092767896 0.331352140541415 -0.579938631612429
-0.226545445528577 0.056633380207481 0.085984264023552 -0.874881810907645 0.185961869594171 0.447213595499958
-0.226540077900130 -0.098602586259970 -0.044261062780406 -0.807495550519350 -0.466207773461772 -0.361387946472028
-0.226539188797643 -0.082686523448347 0.062935178270983 -0.833372759260215 -0.371041457977373 0.409656051566482
-0.226518151382357 -0.079753681379280 0.064829104791326 -0.822668390937734 -0.366275566142096 0.434809070971624
-0.226459474731126 -0.097189175297254 -0.044677726614881 -0.804507462031699 -0.464482599769064 -0.370167067750612
-0.226394349880436 0.128635932418804 -0.023371053261027 -0.780410324537094 0.567001290070665 -0.263570222927608
-0.226307442889692 -0.100007306876310 0.044715605145288 -0.839495514435497 -0.427744329341304 0.335085168217035
-0.226279841099354 -0.116591089199285 -0.002405286680835 -0.865559604923105 -0.499731070902021 -0.032793705195931
-0.226270191452870 -0.044340220452335 0.084355487216058 -0.830758362394632 -0.222601032309044 0.510185577732590
-0.226253555095300 -0.112735129261928 -0.022443029266059 -0.846340557864140 -0.488634948908959 -0.211998931174086
-0.226098731396790 0.085678056870025 -0.065037436708564 -0.744229092767896 0.331352140541415 -0.579938631612429
-0.226083152057104 -0.083710798737850 0.062935178270983 -0.833372759260215 -0.371041457977373 0.409656051566482
-0.226078832283387 0.112999879518996 -0.044564091023661 -0.763357551284248 0.440724687721894 -0.472278517963454
-0.226066942716447 0.021737664869201 -0.083560038077514 -0.788281911958668 0.082851767530181 -0.609710760849693
-0.226047826832072 -0.102727849833956 0.042083047282012 -0.839495514435497 -0.427744329341303 0.335085168217034
-0.226038593214194 -0.118561962540281 -0.000624995751713 -0.865610167943613 -0.499760263475523 -0.030963142661968
-0.225930060340784 -0.079722434495460 -0.064374562426444 -0.791186037084069 -0.403129421178976 -0.459903603490025
-0.225885199697494 0.129336717525409 0.021628640862312 -0.779261001804352 0.566166258226924 0.268715572887396
-0.225855692047168 -0.048927773262485 -0.084203973094430 -0.763321903299264 -0.293011825831369 -0.575746247809360
-0.225810808646549 0.113662972360266 -0.044336819841219 -0.745280164462663 0.483990597861543 -0.458596312283616
-0.225746032412971 -0.112061164587035 -0.024223320195181 -0.844571094173467 -0.487613348570828 -0.221207796386512
-0.225743317170027 0.060407097434779 0.085984264023552 -0.874881810907645 0.185961869594171 0.447213595499958
-0.225727816912943 -0.101144886907541 0.044715605145288 -0.839495514435497 -0.427744329341304 0.335085168217035
-0.225683315717579 -0.114897047279231 0.020776373928158 -0.856057725987040 -0.494245158540477 0.151284146681653
-0.225629611900706 0.086731716509584 -0.065037436708564 -0.744229092767896 0.331352140541415 -0.579938631612429
-0.225627115316564 -0.084735074027354 0.062935178270983 -0.833372759260215 -0.371041457977373 0.409656051566482
-0.225603355152902 -0.046828887404146 0.084355487216058 -0.830758362394632 -0.222601032309044 0.510185577732590
-0.225546785429638 0.129802504805317 -0.023371053261027 -0.780410324537094 0.567001290070665 -0.263570222927608
-0.225534011719844 -0.081964095251942 0.064829104791326 -0.822668390937734 -0.366275566142096 0.434809070971624
-0.225499776025994 -0.103803460103515 0.042083047282012 -0.839495514435497 -0.427744329341303 0.335085168217034
-0.225463654004559 0.094974620228587 0.064526076548071 -0.794743874819705 0.458845590063963 0.397294472545761
-0.225358625514857 0.114247314234046 0.044071670128371 -0.784777619717050 0.453091569997633 0.422885465331124
-0.225319512361547 0.028848989669870 -0.083560038077514 -0.788281911958668 0.082851767530181 -0.609710760849693
-0.225200922122840 -0.099369052358805 -0.044677726614881 -0.804507462031699 -0.464482599769064 -0.370167067750612
-0.225171078576024 -0.085759349316858 0.062935178270983 -0.833372759260215 -0.371041457977373 0.409656051566482
-0.225160492404622 0.087785376149144 -0.065037436708564 -0.744229092767896 0.331352140541415 -0.579938631612429
-0.225148190936194 -0.102282466938772 0.044715605145288 -0.839495514435497 -0.427744329341304 0.335085168217035
-0.225015260259402 0.090296752598407 -0.063654870348714 -0.728481928792758 0.420589237688277 -0.540757591313499
-0.224951725219916 -0.104879070373075 0.042083047282012 -0.839495514435497 -0.427744329341303 0.335085168217034
-0.224941188811478 0.064180814662076 0.085984264023552 -0.874881810907645 0.185961869594171 0.447213595499958
-0.224936518852935 -0.049317554355957 0.084355487216058 -0.830758362394632 -0.222601032309044 0.510185577732590
-0.224861041097747 -0.080866964237742 -0.065132133034581 -0.769003580370512 -0.443984424134701 -0.459903603490026
-0.224715041835485 -0.086783624606361 0.062935178270983 -0.833372759260215 -0.371041457977373 0.409656051566482
-0.224699220978839 0.130969077191829 -0.023371053261027 -0.780410324537094 0.567001290070665 -0.263570222927608
-0.224691372908538 0.088839035788704 -0.065037436708564 -0.744229092767896 0.331352140541415 -0.579938631612429
-0.224656906483961 0.131044376487117 -0.023314235465417 -0.725325518990912 0.653086030731847 -0.217672984000049
-0.224656051118775 -0.116676321757176 0.020776373928158 -0.856057725987040 -0.494245158540477 0.151284146681653
-0.224572082006647 0.035960314470539 -0.083560038077514 -0.788281911958668 0.082851767530181 -0.609710760849693
-0.224569362163246 -0.052278777176678 -0.084203973094430 -0.763321903299264 -0.293011825831369 -0.575746247809360
-0.224568564959445 -0.103420046970003 0.044715605145288 -0.839495514435497 -0.427744329341304 0.335085168217035
-0.224552784275493 0.131170630022808 0.021628640862312 -0.779261001804352 0.566166258226924 0.268715572887396
-0.224549872057331 -0.084174509124603 0.064829104791326 -0.822668390937734 -0.366275566142096 0.434809070971624
-0.224536357133406 -0.121163911757170 -0.000624995751713 -0.865610167943613 -0.499760263475523 -0.030963142661968
-0.224456328591038 0.131267140805195 0.021685458657922 -0.721567837978687 0.649702599551259 0.239220373988295
-0.224403674413838 -0.105954680642634 0.042083047282012 -0.839495514435497 -0.427744329341303 0.335085168217034
-0.224398157995903 0.115838263603305 -0.044336819841219 -0.745280164462663 0.483990597861543 -0.458596312283616
-0.224333111942428 -0.114508414629070 -0.024223320195181 -0.844571094173467 -0.487613348570828 -0.221207796386512
-0.224269682552967 -0.051806221307768 0.084355487216058 -0.830758362394632 -0.222601032309044 0.510185577732590
-0.224259005094945 -0.087807899895865 0.062935178270983 -0.833372759260215 -0.371041457977373 0.409656051566482
-0.224222253412454 0.089892695428264 -0.065037436708564 -0.744229092767896 0.331352140541415 -0.579938631612429
-0.224139060452929 0.067954531889373 0.085984264023552 -0.874881810907645 0.185961869594171 0.447213595499958
-0.224055557909047 -0.082262102045211 -0.065132133034581 -0.769003580370512 -0.443984424134701 -0.459903603490026
-0.223988938982697 -0.104557627001233 0.044715605145288 -0.839495514435497 -0.427744329341304 0.335085168217035
-0.223942369514553 -0.101548929420356 -0.044677726614881 -0.804507462031699 -0.464482599769064 -0.370167067750612
-0.223855623607760 -0.107030290912194 0.042083047282012 -0.839495514435497 -0.427744329341303 0.335085168217034
-0.223826137685740 0.116901661016058 0.044071670128371 -0.784777619717050 0.453091569997633 0.422885465331124
-0.223824651651747 0.043071639271209 -0.083560038077514 -0.788281911958668 0.082851767530181 -0.609710760849693
-0.223754624823108 -0.115642958567681 -0.023693020769485 -0.772433900266688 -0.561206078616800 -0.297310623830274
-0.223733532995499 0.097971277719521 0.064526076548071 -0.794743874819705 0.458845590063963 0.397294472545761
-0.223672347005015 0.116955914518525 0.044298941310813 -0.773618561267943 0.502393767925936 0.386153885919718
-0.223628786519971 -0.118455596235121 0.020776373928158 -0.856057725987040 -0.494245158540477 0.151284146681653
-0.223604155636767 -0.121225512365559 -0.002405286680835 -0.865559604923105 -0.499731070902021 -0.032793705195931
-0.223602846252999 -0.054294888259580 0.084355487216058 -0.830758362394632 -0.222601032309044 0.510185577732590
-0.223565732394818 -0.086384922997265 0.064829104791326 -0.822668390937734 -0.366275566142096 0.434809070971624
-0.223409313005948 -0.105695207032464 0.044715605145288 -0.839495514435497 -0.427744329341304 0.335085168217035
-0.223336932094380 0.071728249116671 0.085984264023552 -0.874881810907645 0.185961869594171 0.447213595499958
-0.223307572801682 -0.108105901181753 0.042083047282012 -0.839495514435497 -0.427744329341303 0.335085168217034
-0.223283032279325 -0.055629781090871 -0.084203973094430 -0.763321903299264 -0.293011825831369 -0.575746247809360
-0.223250074720348 -0.083657239852681 -0.065132133034581 -0.769003580370512 -0.443984424134701 -0.459903603490026
-0.223203709668119 0.136734132488720 -0.000132574856424 -0.743139947838777 0.669126214513321 0.003623117063139
-0.223108076381951 0.117824815081091 0.044298941310813 -0.773618561267943 0.502393767925936 0.386153885919718
-0.223101844379017 0.093610886119244 -0.063654870348714 -0.728481928792758 0.420589237688277 -0.540757591313499
-0.223077221296846 0.050182964071878 -0.083560038077514 -0.788281911958668 0.082851767530181 -0.609710760849693
-0.223034121052618 -0.123765860974058 -0.000624995751713 -0.865610167943613 -0.499760263475523 -0.030963142661968
-0.222985507345257 0.118013554846345 -0.044336819841219 -0.745280164462663 0.483990597861543 -0.458596312283616
-0.222936009953031 -0.056783555211391 0.084355487216058 -0.830758362394632 -0.222601032309044 0.510185577732590
-0.222829687029199 -0.106832787063695 0.044715605145288 -0.839495514435497 -0.427744329341304 0.335085168217035
-0.222759521995604 -0.109181511451313 0.042083047282012 -0.839495514435497 -0.427744329341303 0.335085168217034
-0.222683816906266 -0.103728806481906 -0.044677726614881 -0.804507462031699 -0.464482599769064 -0.370167067750612
-0.222601521921168 -0.120234870713065 0.020776373928158 -0.856057725987040 -0.494245158540477 0.151284146681653
-0.222581592732306 -0.088595336869926 0.064829104791326 -0.822668390937734 -0.366275566142096 0.434809070971624
-0.222543805758887 0.118693715643658 0.044298941310813 -0.773618561267943 0.502393767925936 0.386153885919718
-0.222534803735830 0.075501966343968 0.085984264023552 -0.874881810907645 0.185961869594171 0.447213595499958
-0.222516830033896 0.050079101690415 -0.084298669420447 -0.765615981612399 0.205146183985403 -0.609710760849692
-0.222444591531649 -0.085052377660150 -0.065132133034581 -0.769003580370512 -0.443984424134701 -0.459903603490026
-0.222322188486244 0.079417213146927 0.084772151050533 -0.851632265333009 0.228194177744267 0.471857925532025
-0.222269173653063 -0.059272222163202 0.084355487216058 -0.830758362394632 -0.222601032309044 0.510185577732590
-0.222250061052451 -0.107970367094925 0.044715605145288 -0.839495514435497 -0.427744329341304 0.335085168217035
-0.222211471189526 -0.110257121720872 0.042083047282012 -0.839495514435497 -0.427744329341303 0.335085168217034
-0.222055425965820 0.080412784426706 0.084772151050533 -0.851632265333009 0.228194177744267 0.471857925532025
-0.222037085920257 0.051869531097148 -0.084298669420447 -0.765615981612399 0.205146183985403 -0.609710760849692
-0.222003411986439 0.100967935210455 0.064526076548071 -0.794743874819705 0.458845590063963 0.397294472545761
-0.221996702395403 -0.058980785005065 -0.084203973094430 -0.763321903299264 -0.293011825831369 -0.575746247809360
-0.221991826803849 -0.104149596006608 -0.045511054283832 -0.741575863834549 -0.538786402818112 -0.399717963464693
-0.221979535135823 0.119562616206224 0.044298941310813 -0.773618561267943 0.502393767925936 0.386153885919718
-0.221835613327725 0.007942418736700 0.102897027850211 -0.810904106485363 -0.042497683432397 0.583633855244925
-0.221788663445395 0.081408355706484 0.084772151050533 -0.851632265333009 0.228194177744267 0.471857925532025
-0.221759856266911 0.008607846697227 0.103029602706635 -0.846006943619260 0.000000000000000 0.533171877866788
-0.221759856266911 0.010037103960105 0.103029602706635 -0.846006943619260 0.000000000000000 0.533171877866788
-0.221759856266911 0.011466361222984 0.103029602706635 -0.846006943619260 0.000000000000000 0.533171877866788
-0.221759856266911 0.012895618485862 0.103029602706635 -0.846006943619260 0.000000000000000 0.533171877866788
-0.221759856266911 0.014324875748741 0.103029602706635 -0.846006943619260 0.000000000000000 0.533171877866788
-0.221759856266911 0.015754133011619 0.103029602706635 -0.846006943619260 0.000000000000000 0.533171877866788
-0.221759856266911 0.017183390274498 0.103029602706635 -0.846006943619260 0.000000000000000 0.533171877866788
-0.221759856266911 0.018612647537376 0.103029602706635 -0.846006943619260 0.000000000000000 0.533171877866788
-0.221759856266911 0.020041904800255 0.103029602706635 -0.846006943619260 0.000000000000000 0.533171877866788
-0.221759856266911 0.021471162063133 0.103029602706635 -0.846006943619260 0.000000000000000 0.533171877866788
-0.221732675377281 0.079275683571265 0.085984264023552 -0.874881810907645 0.185961869594171 0.447213595499958
-0.221713044729496 -0.062602164159750 0.083787309259955 -0.813155141587231 -0.264210121594749 0.518624842595434
-0.221689541525411 0.005155202710532 0.102897027850211 -0.810904106485363 -0.042497683432397 0.583633855244925
-0.221674696113033 0.134356456646923 -0.023314235465417 -0.725325518990912 0.653086030731847 -0.217672984000049
-0.221670435075702 -0.109107947126156 0.044715605145288 -0.839495514435497 -0.427744329341304 0.335085168217035
-0.221639108342950 -0.086447515467620 -0.065132133034581 -0.769003580370512 -0.443984424134701 -0.459903603490026
-0.221602337353095 -0.061760889115013 0.084355487216058 -0.830758362394632 -0.222601032309044 0.510185577732590
-0.221597453069793 -0.090805750742588 0.064829104791326 -0.822668390937734 -0.366275566142096 0.434809070971624
-0.221595516566710 -0.062963878651510 0.083787309259955 -0.813155141587231 -0.264210121594749 0.518624842595434
-0.221572856694611 0.120188846089385 -0.044336819841219 -0.745280164462663 0.483990597861543 -0.458596312283616
-0.221557341806618 0.053659960503880 -0.084298669420447 -0.765615981612399 0.205146183985403 -0.609710760849692
-0.221543469723098 0.002367986684364 0.102897027850211 -0.810904106485363 -0.042497683432397 0.583633855244925
-0.221531884971829 -0.126367810190947 -0.000624995751713 -0.865610167943613 -0.499760263475523 -0.030963142661968
-0.221521900924971 0.082403926986263 0.084772151050533 -0.851632265333009 0.228194177744267 0.471857925532025
-0.221477988403924 -0.063325593143271 0.083787309259955 -0.813155141587231 -0.264210121594749 0.518624842595434
-0.221415264512758 0.120431516768790 0.044298941310813 -0.773618561267943 0.502393767925936 0.386153885919718
-0.221397397920784 -0.000419229341804 0.102897027850211 -0.810904106485363 -0.042497683432397 0.583633855244925
-0.221360460241138 -0.063687307635031 0.083787309259955 -0.813155141587231 -0.264210121594749 0.518624842595434
-0.221255138404547 0.083399498266041 0.084772151050533 -0.851632265333009 0.228194177744267 0.471857925532025
-0.221251326118471 -0.003206445367972 0.102897027850211 -0.810904106485363 -0.042497683432397 0.583633855244925
-0.221248496106418 0.023163770977151 0.103768234049569 -0.820270205517601 0.042988539883221 0.570358462178674
-0.221242932078352 -0.064049022126791 0.083787309259955 -0.813155141587231 -0.264210121594749 0.518624842595434
-0.221223992561921 0.134857013651266 0.021685458657922 -0.721567837978687 0.649702599551259 0.239220373988295
-0.221223577202074 0.023639251997043 0.103768234049569 -0.820270205517601 0.042988539883221 0.570358462178674
-0.221198658297730 0.024114733016936 0.103768234049569 -0.820270205517601 0.042988539883221 0.570358462178674
-0.221188428498631 0.096925019640081 -0.063654870348714 -0.728481928792758 0.420589237688277 -0.540757591313499
-0.221173739393386 0.024590214036829 0.103768234049569 -0.820270205517601 0.042988539883221 0.570358462178674
-0.221148820489042 0.025065695056722 0.103768234049569 -0.820270205517601 0.042988539883221 0.570358462178674
-0.221125403915567 -0.064410736618552 0.083787309259955 -0.813155141587231 -0.264210121594749 0.518624842595434
-0.221123901584699 0.025541176076614 0.103768234049569 -0.820270205517601 0.042988539883221 0.570358462178674
-0.221105254316157 -0.005993661394139 0.102897027850211 -0.810904106485363 -0.042497683432397 0.583633855244925
-0.221098982680355 0.026016657096507 0.103768234049569 -0.820270205517601 0.042988539883221 0.570358462178674
-0.221090809098953 -0.110245527157387 0.044715605145288 -0.839495514435497 -0.427744329341304 0.335085168217035
-0.221077597692979 0.055450389910613 -0.084298669420447 -0.765615981612399 0.205146183985403 -0.609710760849692
-0.221074063776011 0.026492138116400 0.103768234049569 -0.820270205517601 0.042988539883221 0.570358462178674
-0.221049144871667 0.026967619136293 0.103768234049569 -0.820270205517601 0.042988539883221 0.570358462178674
-0.221024225967323 0.027443100156185 0.103768234049569 -0.820270205517601 0.042988539883221 0.570358462178674
-0.221007875752781 -0.064772451110312 0.083787309259955 -0.813155141587231 -0.264210121594749 0.518624842595434
-0.220988375884122 0.084395069545820 0.084772151050533 -0.851632265333009 0.228194177744267 0.471857925532025
-0.220959182513843 -0.008780877420307 0.102897027850211 -0.810904106485363 -0.042497683432397 0.583633855244925
-0.220928470174180 -0.125859935531832 -0.002405286680835 -0.865559604923105 -0.499731070902021 -0.032793705195931
-0.220890347589995 -0.065134165602073 0.083787309259955 -0.813155141587231 -0.264210121594749 0.518624842595434
-0.220850993889694 0.121300417331357 0.044298941310813 -0.773618561267943 0.502393767925936 0.386153885919718
-0.220847686498265 -0.018034573861210 0.102290971363702 -0.794272428943115 -0.168827816525446 0.583633855244926
-0.220833625154251 -0.087842653275089 -0.065132133034581 -0.769003580370512 -0.443984424134701 -0.459903603490026
-0.220813110711530 -0.011568093446475 0.102897027850211 -0.810904106485363 -0.042497683432397 0.583633855244925
-0.220798163720780 -0.065908188375887 0.083522159547107 -0.810574802927823 -0.311150514549911 0.496138938356835
-0.220772819427209 -0.065495880093833 0.083787309259955 -0.813155141587231 -0.264210121594749 0.518624842595434
-0.220721613363698 0.085390640825599 0.084772151050533 -0.851632265333009 0.228194177744267 0.471857925532025
-0.220710372511481 -0.062331788919258 -0.084203973094430 -0.763321903299264 -0.293011825831369 -0.575746247809360
-0.220708953441936 -0.122840551561177 0.022121061757601 -0.824411056312547 -0.535378799885348 0.183619037310827
-0.220667038909216 -0.014355309472643 0.102897027850211 -0.810904106485363 -0.042497683432397 0.583633855244925
-0.220664872347818 -0.066255424274007 0.083522159547107 -0.810574802927823 -0.311150514549911 0.496138938356835
-0.220655291264423 -0.065857594585594 0.083787309259955 -0.813155141587231 -0.264210121594749 0.518624842595434
-0.220615181801020 0.028312120342091 0.104203837149248 -0.826921479934958 0.130971495791836 0.546852204267504
-0.220613313407280 -0.093016164615250 0.064829104791326 -0.822668390937734 -0.366275566142096 0.434809070971624
-0.220597853579341 0.057240819317345 -0.084298669420447 -0.765615981612399 0.205146183985403 -0.609710760849692
-0.220531580974857 -0.066602660172126 0.083522159547107 -0.810574802927823 -0.311150514549911 0.496138938356835
-0.220520967106903 -0.017142525498811 0.102897027850211 -0.810904106485363 -0.042497683432397 0.583633855244925
-0.220454850843274 0.086386212105377 0.084772151050533 -0.851632265333009 0.228194177744267 0.471857925532025
-0.220416493156707 -0.020063179038908 0.102290971363702 -0.794272428943115 -0.168827816525446 0.583633855244926
-0.220398289601896 -0.066949896070246 0.083522159547107 -0.810574802927823 -0.311150514549911 0.496138938356835
-0.220286723266630 0.122169317893923 0.044298941310813 -0.773618561267943 0.502393767925936 0.386153885919718
-0.220273290977379 0.103964592701389 0.064526076548071 -0.794743874819705 0.458845590063963 0.397294472545761
-0.220264998228934 -0.067297131968366 0.083522159547107 -0.810574802927823 -0.311150514549911 0.496138938356835
-0.220253634162025 -0.096077712665457 0.062537453701711 -0.817668828684105 -0.416623077472851 0.397294472545761
-0.220188088322849 0.087381783385156 0.084772151050533 -0.851632265333009 0.228194177744267 0.471857925532025
-0.220160206043965 0.122364137332424 -0.044336819841219 -0.745280164462663 0.483990597861543 -0.458596312283616
-0.220131706855973 -0.067644367866486 0.083522159547107 -0.810574802927823 -0.311150514549911 0.496138938356835
-0.220118109465702 0.059031248724078 -0.084298669420447 -0.765615981612399 0.205146183985403 -0.609710760849692
-0.220063517255011 -0.113721806987522 0.042594407442504 -0.824017421326731 -0.475746680019930 0.307669279909547
-0.220028141965552 -0.089237791082559 -0.065132133034581 -0.769003580370512 -0.443984424134701 -0.459903603490026
-0.219998415483011 -0.067991603764605 0.083522159547107 -0.810574802927823 -0.311150514549911 0.496138938356835
-0.219985299815150 -0.022091784216606 0.102290971363702 -0.794272428943115 -0.168827816525446 0.583633855244926
-0.219921325802425 0.088377354664935 0.084772151050533 -0.851632265333009 0.228194177744267 0.471857925532025
-0.219865124110050 -0.068338839662725 0.083522159547107 -0.810574802927823 -0.311150514549911 0.496138938356835
-0.219863502173715 0.033058038727535 0.104203837149248 -0.826921479934958 0.130971495791836 0.546852204267504
-0.219819036175861 -0.121059831628163 -0.023693020769485 -0.772433900266688 -0.561206078616800 -0.297310623830274
-0.219803425390020 0.088414898635663 0.084980482967771 -0.794743874819705 0.458845590063963 0.397294472545761
-0.219731832737089 -0.068686075560845 0.083522159547107 -0.810574802927823 -0.311150514549911 0.496138938356835
-0.219722452643566 0.123038218456489 0.044298941310813 -0.773618561267943 0.502393767925936 0.386153885919718
-0.219650166254908 -0.114437751921060 0.042594407442504 -0.824017421326731 -0.475746680019930 0.307669279909547
-0.219638365352063 0.060821678130811 -0.084298669420447 -0.765615981612399 0.205146183985403 -0.609710760849692
-0.219598541364127 -0.069033311458965 0.083522159547107 -0.810574802927823 -0.311150514549911 0.496138938356835
-0.219598048267473 -0.097364372429366 0.062537453701711 -0.817668828684105 -0.416623077472851 0.397294472545761
-0.219554106473592 -0.024120389394303 0.102290971363702 -0.794272428943115 -0.168827816525446 0.583633855244926
-0.219424042627559 -0.065682792833452 -0.084203973094430 -0.763321903299264 -0.293011825831369 -0.575746247809360
-0.219388498193793 -0.068946308729125 0.083919884116379 -0.805449824823317 -0.358609366588076 0.471857925532025
-0.219353838915220 0.141009847127365 -0.000132574856424 -0.743139947838777 0.669126214513321 0.003623117063139
-0.219275012618246 0.100239153160918 -0.063654870348714 -0.728481928792758 0.420589237688277 -0.540757591313499
-0.219236815254805 -0.115153696854598 0.042594407442504 -0.824017421326731 -0.475746680019930 0.307669279909547
-0.219222658776852 -0.090632928890029 -0.065132133034581 -0.769003580370512 -0.443984424134701 -0.459903603490026
-0.219158621238424 0.062612107537543 -0.084298669420447 -0.765615981612399 0.205146183985403 -0.609710760849692
-0.219158182020502 0.123907119019056 0.044298941310813 -0.773618561267943 0.502393767925936 0.386153885919718
-0.219122913132035 -0.026148994572001 0.102290971363702 -0.794272428943115 -0.168827816525446 0.583633855244926
-0.219111822546411 0.037803957112980 0.104203837149248 -0.826921479934958 0.130971495791836 0.546852204267504
-0.218942462372920 -0.098651032193276 0.062537453701711 -0.817668828684105 -0.416623077472851 0.397294472545761
-0.218823464254702 -0.115869641788136 0.042594407442504 -0.824017421326731 -0.475746680019930 0.307669279909547
-0.218747555393319 0.124539428575464 -0.044336819841219 -0.745280164462663 0.483990597861543 -0.458596312283616
-0.218713166834663 0.090303281846928 0.084980482967771 -0.794743874819705 0.458845590063963 0.397294472545761
-0.218692485742106 0.137668536806729 -0.023314235465417 -0.725325518990912 0.653086030731847 -0.217672984000049
-0.218691719790477 -0.028177599749699 0.102290971363702 -0.794272428943115 -0.168827816525446 0.583633855244926
-0.218678877124785 0.064402536944276 -0.084298669420447 -0.765615981612399 0.205146183985403 -0.609710760849692
-0.218651063054123 -0.126009424868740 0.022121061757601 -0.824411056312547 -0.535378799885348 0.183619037310827
-0.218642621139211 0.125385625826400 0.043446674376658 -0.745876971315575 0.541911340320600 0.387297873597360
-0.218593911397437 0.124776019581622 0.044298941310813 -0.773618561267943 0.502393767925936 0.386153885919718
-0.218582969903236 0.125467728709129 0.043446674376658 -0.745876971315575 0.541911340320600 0.387297873597360
-0.218543169968319 0.106961250192323 0.064526076548071 -0.794743874819705 0.458845590063963 0.397294472545761
-0.218523318667261 0.125549831591858 0.043446674376658 -0.745876971315575 0.541911340320600 0.387297873597360
-0.218463667431287 0.125631934474587 0.043446674376658 -0.745876971315575 0.541911340320600 0.387297873597360
-0.218417175588153 -0.092028066697498 -0.065132133034581 -0.769003580370512 -0.443984424134701 -0.459903603490026
-0.218413222600687 -0.097478705974628 0.065170011564988 -0.812811841348142 -0.414148318817307 0.409656051566482
-0.218410113254599 -0.116585586721674 0.042594407442504 -0.824017421326731 -0.475746680019930 0.307669279909547
-0.218404016195312 0.125714037357316 0.043446674376658 -0.745876971315575 0.541911340320600 0.387297873597360
-0.218373581665871 -0.109129683198354 -0.045511054283832 -0.741575863834549 -0.538786402818112 -0.399717963464693
-0.218360142919106 0.042549875498424 0.104203837149248 -0.826921479934958 0.130971495791836 0.546852204267504
-0.218344364959338 0.125796140240046 0.043446674376658 -0.745876971315575 0.541911340320600 0.387297873597360
-0.218305034687165 0.066304336926324 -0.084128216033617 -0.710144771888822 0.316176823166790 -0.629068056295286
-0.218286876478368 -0.099937691957185 0.062537453701711 -0.817668828684105 -0.416623077472851 0.397294472545761
-0.218284713723363 0.125878243122775 0.043446674376658 -0.745876971315575 0.541911340320600 0.387297873597360
-0.218260526448920 -0.030206204927397 0.102290971363702 -0.794272428943115 -0.168827816525446 0.583633855244926
-0.218252784711594 -0.130494358698106 -0.002405286680835 -0.865559604923105 -0.499731070902021 -0.032793705195931
-0.218225062487389 0.125960346005504 0.043446674376658 -0.745876971315575 0.541911340320600 0.387297873597360
-0.218199133011146 0.066192966351009 -0.084298669420447 -0.765615981612399 0.205146183985403 -0.609710760849692
-0.218165411251414 0.126042448888233 0.043446674376658 -0.745876971315575 0.541911340320600 0.387297873597360
-0.218137712743638 -0.069033796747645 -0.084203973094430 -0.763321903299264 -0.293011825831369 -0.575746247809360
-0.218115988248022 -0.098062061237765 0.065170011564988 -0.812811841348142 -0.414148318817307 0.409656051566482
-0.218105760015439 0.126124551770962 0.043446674376658 -0.745876971315575 0.541911340320600 0.387297873597360
-0.218055838393352 0.126148153025531 0.043503492172269 -0.681194918944016 0.613350659972331 0.399717963464692
-0.217996762254496 -0.117301531655211 0.042594407442504 -0.824017421326731 -0.475746680019930 0.307669279909547
-0.217991656532805 0.138446886497336 0.021685458657922 -0.721567837978687 0.649702599551259 0.239220373988295
-0.217829333107363 -0.032234810105094 0.102290971363702 -0.794272428943115 -0.168827816525446 0.583633855244926
-0.217818753895358 -0.098645416500901 0.065170011564988 -0.812811841348142 -0.414148318817307 0.409656051566482
-0.217631290583816 -0.101224351721095 0.062537453701711 -0.817668828684105 -0.416623077472851 0.397294472545761
-0.217622908279306 0.092191665058194 0.084980482967771 -0.794743874819705 0.458845590063963 0.397294472545761
-0.217611692399454 -0.093423204504968 -0.065132133034581 -0.769003580370512 -0.443984424134701 -0.459903603490026
-0.217608463291802 0.047295793883869 0.104203837149248 -0.826921479934958 0.130971495791836 0.546852204267504
-0.217583411254393 -0.118017476588749 0.042594407442504 -0.824017421326731 -0.475746680019930 0.307669279909547
-0.217560574766391 -0.073051891966950 0.083919884116379 -0.805449824823317 -0.358609366588076 0.471857925532025
-0.217553783737059 -0.094018451381083 -0.064601833608885 -0.713289733911979 -0.518235326476680 -0.471857925532025
-0.217521519542693 -0.099228771764037 0.065170011564988 -0.812811841348142 -0.414148318817307 0.409656051566482
-0.217462541536155 0.093605784317381 0.085851689167128 -0.779758306544898 0.450193668186544 0.435089237397314
-0.217398139765805 -0.034263415282792 0.102290971363702 -0.794272428943115 -0.168827816525446 0.583633855244926
-0.217361596737860 0.103553286681755 -0.063654870348714 -0.728481928792758 0.420589237688277 -0.540757591313499
-0.217334904742673 0.126714719818504 -0.044336819841219 -0.745280164462663 0.483990597861543 -0.458596312283616
-0.217224285190029 -0.099812127027174 0.065170011564988 -0.812811841348142 -0.414148318817307 0.409656051566482
-0.217218896790992 0.094027789395000 0.085851689167128 -0.779758306544898 0.450193668186544 0.435089237397314
-0.217170060254290 -0.118733421522287 0.042594407442504 -0.824017421326731 -0.475746680019930 0.307669279909547
-0.217160535306020 -0.072904422358773 -0.083465341751497 -0.753797706273422 -0.384079115116835 -0.533171877866788
-0.216992841634338 -0.073233539720523 -0.083465341751497 -0.753797706273422 -0.384079115116835 -0.533171877866788
-0.216975704689263 -0.102511011485005 0.062537453701711 -0.817668828684105 -0.416623077472851 0.397294472545761
-0.216975252045829 0.094449794472620 0.085851689167128 -0.779758306544898 0.450193668186544 0.435089237397314
-0.216966946424248 -0.036292020460490 0.102290971363702 -0.794272428943115 -0.168827816525446 0.583633855244926
-0.216964323916925 -0.036920986804293 0.102082639446464 -0.795203084884525 -0.213074024413546 0.567672012618511
-0.216927050837365 -0.100395482290310 0.065170011564988 -0.812811841348142 -0.414148318817307 0.409656051566482
-0.216856783664497 0.052041712269313 0.104203837149248 -0.826921479934958 0.130971495791836 0.546852204267504
-0.216851382859716 -0.072384800661838 -0.084203973094430 -0.763321903299264 -0.293011825831369 -0.575746247809360
-0.216825147962656 -0.073562657082273 -0.083465341751497 -0.753797706273422 -0.384079115116835 -0.533171877866788
-0.216813048959259 0.109957907683257 0.064526076548071 -0.794743874819705 0.458845590063963 0.397294472545761
-0.216756709254187 -0.119449366455825 0.042594407442504 -0.824017421326731 -0.475746680019930 0.307669279909547
-0.216731607300666 0.094871799550239 0.085851689167128 -0.779758306544898 0.450193668186544 0.435089237397314
-0.216657454290973 -0.073891774444023 -0.083465341751497 -0.753797706273422 -0.384079115116835 -0.533171877866788
-0.216629816484700 -0.100978837553446 0.065170011564988 -0.812811841348142 -0.414148318817307 0.409656051566482
-0.216593172666310 -0.129178298176304 0.022121061757601 -0.824411056312547 -0.535378799885348 0.183619037310827
-0.216584665615894 -0.038337890873257 0.102082639446464 -0.795203084884525 -0.213074024413546 0.567672012618511
-0.216532649723949 0.094080048269459 0.084980482967771 -0.794743874819705 0.458845590063963 0.397294472545761
-0.216489760619291 -0.074220891805774 -0.083465341751497 -0.753797706273422 -0.384079115116835 -0.533171877866788
-0.216487962555503 0.095293804627859 0.085851689167128 -0.779758306544898 0.450193668186544 0.435089237397314
-0.216483671718382 0.070395185132839 -0.084128216033617 -0.710144771888822 0.316176823166790 -0.629068056295286
-0.216343358254084 -0.120165311389362 0.042594407442504 -0.824017421326731 -0.475746680019930 0.307669279909547
-0.216332582132036 -0.101562192816582 0.065170011564988 -0.812811841348142 -0.414148318817307 0.409656051566482
-0.216322066947609 -0.074550009167524 -0.083465341751497 -0.753797706273422 -0.384079115116835 -0.533171877866788
-0.216320118794711 -0.103797671248914 0.062537453701711 -0.817668828684105 -0.416623077472851 0.397294472545761
-0.216244317810340 0.095715809705478 0.085851689167128 -0.779758306544898 0.450193668186544 0.435089237397314
-0.216205007314862 -0.039754794942221 0.102082639446464 -0.795203084884525 -0.213074024413546 0.567672012618511
-0.216154373275927 -0.074879126529274 -0.083465341751497 -0.753797706273422 -0.384079115116835 -0.533171877866788
-0.216105104037192 0.056787630654758 0.104203837149248 -0.826921479934958 0.130971495791836 0.546852204267504
-0.216035347779371 -0.102145548079719 0.065170011564988 -0.812811841348142 -0.414148318817307 0.409656051566482
-0.216000673065177 0.096137814783098 0.085851689167128 -0.779758306544898 0.450193668186544 0.435089237397314
-0.215986679604244 -0.075208243891025 -0.083465341751497 -0.753797706273422 -0.384079115116835 -0.533171877866788
-0.215922254092027 0.128890011061543 -0.044336819841219 -0.745280164462663 0.483990597861543 -0.458596312283616
-0.215883447528614 -0.126476704688645 -0.023693020769485 -0.772433900266688 -0.561206078616800 -0.297310623830274
-0.215868287922091 -0.011683714733707 -0.101287190307920 -0.762727108734631 0.080165849479954 -0.641732650079820
-0.215825349013831 -0.041171699011185 0.102082639446464 -0.795203084884525 -0.213074024413546 0.567672012618511
-0.215818985932562 -0.075537361252775 -0.083465341751497 -0.753797706273422 -0.384079115116835 -0.533171877866788
-0.215757028320014 0.096559819860717 0.085851689167128 -0.779758306544898 0.450193668186544 0.435089237397314
-0.215738113426707 -0.102728903342855 0.065170011564988 -0.812811841348142 -0.414148318817307 0.409656051566482
-0.215732651338989 -0.077157475204776 0.083919884116379 -0.805449824823317 -0.358609366588076 0.471857925532025
-0.215710275371178 0.140980616966534 -0.023314235465417 -0.725325518990912 0.653086030731847 -0.217672984000049
-0.215664532900158 -0.105084331012824 0.062537453701711 -0.817668828684105 -0.416623077472851 0.397294472545761
-0.215651292260880 -0.075866478614525 -0.083465341751497 -0.753797706273422 -0.384079115116835 -0.533171877866788
-0.215577099249007 -0.135128781864380 -0.002405286680835 -0.865559604923105 -0.499731070902021 -0.032793705195931
-0.215513383574851 0.096981824938337 0.085851689167128 -0.779758306544898 0.450193668186544 0.435089237397314
-0.215503968162321 0.145285561766009 -0.000132574856424 -0.743139947838777 0.669126214513321 0.003623117063139
-0.215448180857475 0.106867420202592 -0.063654870348714 -0.728481928792758 0.420589237688277 -0.540757591313499
-0.215445690712800 -0.042588603080149 0.102082639446464 -0.795203084884525 -0.213074024413546 0.567672012618511
-0.215442391168591 0.095968431480724 0.084980482967771 -0.794743874819705 0.458845590063963 0.397294472545761
-0.215353424409888 0.061533549040202 0.104203837149248 -0.826921479934958 0.130971495791836 0.546852204267504
-0.215269747369914 -0.005988981779663 -0.101287190307920 -0.762727108734631 0.080165849479954 -0.641732650079820
-0.215269738829688 0.097403830015956 0.085851689167128 -0.779758306544898 0.450193668186544 0.435089237397314
-0.215082927950199 0.112954565174191 0.064526076548071 -0.794743874819705 0.458845590063963 0.397294472545761
-0.215066032411769 -0.044005507149112 0.102082639446464 -0.795203084884525 -0.213074024413546 0.567672012618511
-0.215054436420097 -0.039014972422043 -0.101931125324837 -0.743435110637628 -0.285378001356361 -0.604866623821373
-0.215008947005606 -0.106370990776734 0.062537453701711 -0.817668828684105 -0.416623077472851 0.397294472545761
-0.214919408212616 0.129631511636144 0.043503492172269 -0.681194918944016 0.613350659972331 0.399717963464692
-0.214759320503688 0.142036759343407 0.021685458657922 -0.721567837978687 0.649702599551259 0.239220373988295
-0.214755336527893 -0.114109770390099 -0.045511054283832 -0.741575863834549 -0.538786402818112 -0.399717963464693
-0.214686374110737 -0.045422411218076 0.102082639446464 -0.795203084884525 -0.213074024413546 0.567672012618511
-0.214671206817737 -0.000294248825618 -0.101287190307920 -0.762727108734631 0.080165849479954 -0.641732650079820
-0.214662308749598 0.074486033339354 -0.084128216033617 -0.710144771888822 0.316176823166790 -0.629068056295286
-0.214601744782583 0.066279467425647 0.104203837149248 -0.826921479934958 0.130971495791836 0.546852204267504
-0.214535282278498 -0.132347171483868 0.022121061757601 -0.824411056312547 -0.535378799885348 0.183619037310827
